ncols         155
nrows         66
xllcorner     239681
yllcorner     6041451
cellsize      100
NODATA_value  -9999
10.05478 9.978281 10.00906 10.00625 10.0017 9.990171 9.991968 10.09219 9.987046 9.425375 9.239672 16.90692 29.72547 34.46703 43.60844 39.21547 37.87141 39.87688 47.03391 46.0764 33.95609 26.74922 14.26633 10.98834 14.01672 19.73359 21.37656 29.67313 43.5425 56.15813 67.90031 65.18687 56.13219 47.35469 61.89063 87.385 82.97547 58.58625 39.63 48.01125 62.67 44.58344 34.41469 49.36297 60.97047 55.31437 69.67453 78.84328 77.78922 63.12047 54.31656 64.89735 79.815 81.93188 67.48421 53.25344 38.94859 33.49641 49.12609 44.55516 30.52812 32.38375 29.28687 35.20797 47.23672 62.48453 56.76656 44.48859 35.46593 30.69172 25.16047 16.63109 5.579391 7.425375 14.82991 14.66109 1.799134 1.012942 0.8680672 1.275128 2.490078 7.371344 4.603375 6.043844 9.325047 14.17534 13.27542 13.49764 13.37344 14.41063 16.04734 18.91469 23.03719 23.02422 24.10391 26.19531 30.9 35.47063 41.76047 48.33891 51.25047 54.85828 53.50906 58.05719 57.24047 70.11953 73.09454 85.43079 80.41016 69.33953 57.36687 51.83672 36.57265 28.07234 41.23328 45.03453 39.59969 48.30719 41.14235 49.79984 70.70062 88.53422 84.09828 81.29343 65.40688 74.79953 87.46984 86.35531 81.13016 72.41953 64.31016 61.40672 67.22797 80.12406 74.1311 57.07922 51.05594 57.9236 56.19234 53.6661 53.90922 46.02687 40.08391 33.86438 27.84453 25.8425 23.35031 14.39172 10.24298 9.994141 10.15344 17.40937 32.21328 38.40187 28.49797
10.03431 9.985312 10.00438 10.01188 9.998891 10.00088 10.00111 9.982968 10.199 13.22405 14.70905 10.307 17.34484 31.59281 46.31625 48.11234 47.53625 48.83937 52.47688 54.41391 55.70766 41.4789 21.27336 23.7278 18.40578 29.23203 39.09375 35.27391 33.94172 44.00578 56.31047 71.84782 83.06265 75.98047 73.43828 87.41703 95.79969 67.90969 50.75813 61.11985 73.96375 49.84281 42.70531 59.91219 79.30016 69.97453 64.13156 70.59016 70.98609 76.83453 71.89 75.89031 74.05016 62.10922 48.04047 43.26047 31.3236 28.98078 44.24719 50.40359 35.60547 23.50797 30.21969 40.17437 47.40234 59.01031 58.33141 42.27687 27.95187 20.3925 13.85344 8.8925 3.102203 4.517172 11.82717 12.09937 1.269322 0.9149656 0.8588015 1.184152 1.563906 2.788375 4.868453 7.310641 8.361063 10.07691 13.23011 15.55311 15.15156 18.49109 24.17859 25.79047 38.69266 38.65859 36.21484 39.16641 44.92422 49.58391 51.79172 56.45531 56.62078 59.93484 67.38641 70.39391 72.65141 81.10078 89.8375 97.88703 74.6461 52.495 44.28797 36.52266 31.13437 28.72 52.70125 49.84859 30.18328 32.90719 38.70719 57.38656 79.68266 91.19984 69.54906 59.38484 50.36312 59.46906 77.69797 89.97797 91.06219 87.40156 73.20234 69.61219 77.50844 84.48969 76.65297 58.88078 61.74813 65.12203 50.88297 42.83094 38.47875 34.87219 28.84328 23.41516 20.68984 20.08391 19.92766 17.50969 14.02603 9.868671 10.6557 19.57891 33.96328 38.01672 30.14016
9.549766 9.996407 10.00688 10.00872 10.00698 9.99575 10.00614 9.959406 10.4412 21.79484 36.92219 32.83611 29.30153 27.54562 31.42531 31.47484 33.3689 41.90141 49.75844 50.22766 50.43672 39.51078 28.29906 47.35875 38.24594 25.12953 42.48031 57.00344 60.75812 56.01422 54.22516 53.7175 79.17219 95.32656 100.5148 108.3159 100.9959 73.40094 61.63688 81.33344 82.61266 59.20844 58.49828 66.06766 72.64532 54.3061 40.52485 44.38391 46.14781 69.61 70.88891 59.87313 64.3125 49.68813 39.66547 31.5375 27.40641 24.89688 25.19922 39.42594 31.09125 21.3861 34.08063 46.25313 38.79344 45.46406 61.90859 47.94156 25.98641 17.86547 11.12352 6.412094 2.143875 2.128641 12.25028 11.77141 0.9240703 0.981475 0.9535844 1.244933 1.661937 4.49625 8.53336 12.13603 12.8457 17.64125 25.29641 29.2875 22.93984 22.31125 34.32453 30.23703 39.40688 48.08359 48.55391 50.29953 48.68297 47.41859 41.13344 41.39172 41.87828 45.36844 52.2325 54.8186 61.33281 63.41328 72.64687 87.37984 71.54515 48.79531 43.24531 37.75391 28.995 29.06641 53.77734 57.23516 31.50797 34.40469 42.48047 45.56891 57.28484 79.70484 73.97125 60.04609 43.07016 49.16578 55.93922 71.48312 96.11453 97.82563 83.80141 82.79656 91.81516 92.94078 75.66031 60.53953 69.21343 58.27875 46.11625 39.34969 30.60438 23.32984 20.91813 19.95891 19.91828 20.37219 22.14875 28.07641 22.07531 10.35311 10.71952 21.43875 37.10125 38.63828 32.23359
9.761531 10.00341 10.00411 10.00033 9.997078 10.00172 10.0018 9.969969 10.10311 19.26625 48.78812 64.10656 59.64297 51.31109 38.65094 40.73203 39.97422 45.24234 50.19156 49.87265 54.63203 42.01344 39.63609 58.87719 63.4925 45.10188 35.09094 53.16797 75.26266 81.62907 75.61578 68.0225 71.43641 89.24922 114.6453 133.4781 123.2031 98.0089 93.33234 105.0084 96.58157 84.94656 67.88719 41.84328 45.91813 48.51844 28.36922 27.98562 34.03016 47.24094 56.63547 41.77813 46.78563 51.86469 53.20375 45.47844 42.23828 38.83828 22.41875 20.64063 15.21609 21.46844 38.06375 47.64531 29.79141 32.9439 45.43766 48.96109 34.07656 22.70859 14.74375 9.085875 4.84 1.451852 2.447789 2.503219 0.8618953 0.983236 0.8759469 1.094734 3.0715 9.410391 13.45867 18.05703 19.25391 23.01094 35.16875 39.15812 27.42328 25.68984 41.08437 43.95859 40.36109 48.56297 47.33172 37.78625 36.26703 28.50703 27.81328 28.45016 30.9775 33.64891 36.11609 39.00359 42.7625 47.40594 52.92313 73.00344 84.87172 68.55609 60.42953 43.20531 27.86765 25.19094 44.71906 50.91281 27.55172 40.02453 61.29797 62.3975 69.4975 75.85593 63.65594 50.21703 39.85859 42.40562 58.46422 72.81484 95.51156 105.725 97.40781 95.41875 99.54516 90.31031 74.03687 69.46078 66.83079 50.74125 39.16078 32.68438 23.34172 25.48094 26.37156 20.22109 21.55203 27.97734 30.58125 30.30656 19.84413 10.21594 11.76797 19.34953 28.76234 32.57359 30.19859
9.982375 10 10.00023 9.999812 9.991688 9.999734 10.00583 9.962281 10.45687 20.29359 51.27875 76.37922 84.10672 77.5925 66.67766 65.73625 57.18047 54.43281 50.00625 49.96125 59.62219 52.34797 49.99094 65.86531 79.265 73.78046 58.42109 53.57547 57.09 78.04343 93.35593 90.6014 91.435 101.9641 119.4016 128.9688 124.6094 107.4362 100.58 98.37609 88.56406 82.95625 71.70078 50.79453 32.15781 30.29375 22.89141 32.77515 41.35531 43.59703 53.26109 50.14375 36.22094 32.99547 41.99547 54.55078 59.13609 49.65703 32.7211 17.57375 17.14422 30.38078 42.41984 51.08813 34.93875 24.16094 23.70625 36.05531 35.4425 26.58359 20.50937 14.4275 7.983219 2.344859 0.8927734 0.8075031 1.018375 0.9472312 0.71695 0.9488031 9.63561 14.35563 16.74469 19.555 26.95766 32.14031 39.92703 43.33531 31.05344 36.04297 48.69922 48.86656 44.68406 36.99672 30.40141 23.52219 22.74875 26.41234 30.76391 34.16063 38.94188 49.26578 51.73063 56.93922 58.35188 70.4075 79.82468 83.7225 95.36781 71.45531 55.14359 46.37797 33.42281 20.29625 23.86813 24.22234 25.69234 33.77485 48.64906 45.20031 52.87906 63.6575 70.99656 52.52797 34.45594 46.50531 61.48969 64.55485 78.34797 82.23266 80.72015 84.29406 97.65375 91.03297 82.98063 81.74687 65.38172 49.69563 37.68234 33.19735 35.21156 36.24484 24.12766 19.79766 26.91016 40.05891 40.30422 28.77047 15.41797 9.999375 14.78687 19.67422 20.76109 24.06297 24.17937
9.970735 9.996719 9.995391 10.00974 9.992625 9.993641 10.00325 9.995641 9.902187 17.26859 44.8725 66.87297 91.21687 97.76984 90.89015 79.51047 61.33203 57.27187 52.50547 50.14016 59.95891 66.44563 58.54562 60.22625 79.13297 90.38828 82.27891 70.6325 65.19704 72.43875 90.34109 99.37406 98.91312 105.2766 114.4797 96.81953 93.0336 84.3261 67.04407 68.52141 74.63985 60.025 54.3125 51.86953 44.88438 29.82734 20.40156 39.52984 55.88187 60.68844 60.38766 61.95547 51.01469 34.73141 27.87594 43.30312 48.60563 52.45313 37.43515 17.62062 14.48875 29.62062 44.07375 51.98344 44.84188 30.89141 17.33906 14.52023 15.05992 10.89961 10.29688 12.04203 11.78525 7.709938 2.345469 0.8375109 0.758211 0.7418016 0.7110516 0.7546312 5.022883 13.07672 13.03766 15.98281 28.10453 41.57547 44.11609 35.48687 34.92453 38.59141 42.19687 34.45016 37.70516 24.71 19.80219 21.51828 25.08469 35.42641 37.82875 40.17547 51.13797 62.23219 60.90797 65.1236 65.41047 72.10594 77.08953 85.62875 97.28188 68.74125 45.53109 34.55844 26.24703 17.56031 19.22594 22.96531 39.08141 43.26937 38.44828 49.02844 63.37984 67.91922 55.93797 38.96312 31.19969 50.37406 54.22953 57.53062 68.62922 67.10531 69.835 73.79953 90.1186 102.7025 96.88844 78.30703 66.64812 51.83391 42.10969 46.63016 46.98656 33.68078 21.24719 23.80937 34.96172 41.19641 33.06281 21.97203 13.73016 12.15172 17.62828 19.97266 20.00641 20.39812 19.97156
9.771563 9.993125 10.00445 10.00308 9.987203 10.00334 9.998656 9.986156 10.03516 14.72375 30.11078 54.57313 80.90891 95.73438 100.3148 82.81047 72.61625 71.34703 61.90016 50.825 59.88594 77.61485 73.99766 61.23297 69.17984 86.25734 96.39953 95.09687 94.07672 93.81031 93.77828 99.15625 75.06594 79.39532 96.90469 78.90359 66.77453 58.89875 41.62062 55.33453 74.82562 64.78969 44.58422 30.46672 33.32266 28.57688 16.83859 32.83328 34.35859 51.21375 55.77156 47.81656 43.7911 39.56266 25.32203 27.17594 29.47688 48.19125 40.27641 21.14328 10.87514 13.04492 28.36375 42.3075 28.23266 19.53312 11.50922 8.977265 7.491984 3.908313 2.718703 2.730859 5.039094 7.277484 6.466102 1.481095 1.116528 0.8961469 0.9781703 0.888589 0.9586922 4.314273 6.999906 12.47519 27.83406 38.95266 34.30031 22.28359 32.82406 37.46188 27.51422 22.90375 25.33609 16.48797 18.58016 22.30922 32.41828 39.26875 39.62891 38.20515 49.51672 58.77672 49.62516 49.89797 45.94062 48.75406 56.95563 79.4025 78.98516 59.73031 56.86312 45.30172 24.64313 16.18141 27.65563 36.21297 40.49875 61.68203 56.88984 71.22735 81.62516 58.69641 38.11515 29.62453 39.94125 55.43922 46.48922 44.82531 44.56672 58.65969 70.19485 77.16734 90.25282 111.0094 108.8281 88.95141 76.7025 57.14516 52.24047 56.99 41.33187 28.86516 28.58234 36.7275 39.05453 25.45297 20.56781 20.18703 17.44375 18.10687 21.11469 22.51 24.70672 26.65953 26.29781
12.16203 9.970672 9.994657 9.995954 10 10.00141 10.00898 9.998672 9.915297 10.15867 20.67703 45.81234 64.35938 74.86922 91.67469 99.42609 93.03687 84.4311 66.46 60.73828 63.09078 82.09016 88.31985 75.30375 76.62437 80.27969 86.33437 100.1653 110.0031 116.1594 110.1609 88.19391 50.72766 53.91422 77.77281 82.27438 55.04062 38.93375 30.2275 42.40781 65.00031 74.95828 60.05359 37.0075 23.90578 18.34281 16.84984 13.53266 13.41956 40.67531 55.53547 40.87672 31.3175 26.35578 23.05891 17.065 24.14672 43.3275 44.52047 26.53672 18.39394 9.969891 22.11973 39.67031 33.77734 22.46672 16.62297 21.72141 18.49281 10.16061 3.805922 1.396636 1.167976 3.283941 4.572456 1.20052 0.9325688 1.066234 1.043609 1.406975 0.98675 0.8361593 1.131816 7.859266 18.94889 22.06336 19.12695 13.86958 29.98828 40.39375 33.17344 21.04875 14.58937 16.99531 27.71719 30.63313 33.27078 41.49656 36.64812 31.93906 41.42984 47.38485 39.26453 36.89968 44.64141 57.92688 67.72453 73.13969 61.69406 38.98 38.18156 34.58 17.84861 18.98656 38.71938 58.79313 47.14797 58.92469 71.8614 63.06485 58.87141 47.43797 30.18094 27.31609 44.35719 46.92453 36.80188 42.17735 54.05484 71.1086 85.07969 94.40297 96.20141 101.8305 114.0719 94.74281 75.85703 68.71922 65.70281 48.36172 35.75797 33.92047 44.03844 45.46735 29.16531 19.38078 20.03781 19.675 25.08453 29.58359 33.87969 34.18406 34.69766 35.97609 35.93937
12.51128 9.985703 9.996485 9.99836 9.997766 9.995859 10.00125 10.01033 9.992859 10.11695 18.27141 33.17172 36.84422 52.95672 80.21766 107.6327 106.4834 92.43219 79.08688 76.23985 76.45937 87.14344 90.18797 89.72625 89.14984 84.93203 82.62187 87.54704 100.2883 111.2359 100.743 75.82687 54.96656 37.85797 57.90328 76.22625 60.66969 40.83609 30.06187 23.65156 37.81094 58.8611 63.60016 51.42766 40.07453 36.01328 31.08359 15.53687 5.356843 22.03625 43.19735 55.32203 48.88313 41.76688 34.75047 23.15594 16.09125 26.16063 38.97547 33.51062 18.07859 9.529672 17.61327 34.58453 42.82938 34.94828 27.52172 29.57422 23.60234 16.51797 9.741172 1.460441 0.7867516 0.9248359 1.868922 1.157109 1.146191 1.219891 1.069703 1.592088 1.048473 1.070211 1.926047 1.462125 7.054688 6.517625 7.568016 9.376469 20.25109 24.21734 24.04234 23.53344 13.09953 18.00422 31.70891 35.09703 33.87609 30.38219 26.77984 27.37953 34.02719 35.35609 33.23344 46.21031 61.48515 66.29546 73.60406 68.45609 63.76375 47.75266 33.04797 19.86734 10.21289 20.40766 41.63422 68.5075 76.36047 80.17656 60.45313 36.42156 37.52312 28.27406 28.06 40.56797 44.35219 35.01578 40.11344 58.2725 70.35625 73.77985 76.61813 77.27859 76.595 96.63125 105.675 103.9253 86.18391 73.9875 66.82344 53.19641 46.91594 46.39484 44.17765 31.07688 20.89719 19.91469 19.99359 21.46313 37.14156 38.90484 37.50172 34.0675 34.00031 35.04422 38.64188
10.28363 10.00531 9.996953 9.997031 10.0048 10.005 9.983438 10.0065 10.22848 12.03258 22.13781 29.2475 32.39031 55.96844 84.59657 99.25218 93.84047 85.78219 91.92516 93.65703 81.98515 74.50906 75.85438 79.40282 88.56156 87.83828 87.20781 85.67046 90.29844 94.94688 93.8289 70.90031 50.91891 30.48063 42.16265 59.53563 61.27437 54.02281 37.07672 15.56797 14.32063 27.67047 38.94469 47.12609 39.20734 34.65781 34.82969 20.27828 7.817312 5.063313 17.44784 49.03922 62.43547 53.34422 44.58172 31.62313 23.65219 15.31422 22.38688 29.7075 17.19453 7.457875 11.21569 23.74625 30.97078 37.06391 33.35219 28.33516 17.85156 20.09688 13.75523 1.891722 0.7302984 1.018414 1.238281 1.126656 1.025784 1.123172 1.361969 1.771509 1.505247 1.705875 2.296828 1.508922 1.631406 2.030125 2.981688 4.671703 8.239843 9.596328 11.49672 12.88062 10.31633 15.55734 22.85969 24.23844 24.05734 21.22672 21.65562 24.13109 27.10453 29.04828 32.52719 45.34625 62.54062 70.44157 56.59 43.27328 48.43562 51.77453 38.46828 18.83531 9.481954 22.54672 39.96859 63.55828 80.48469 66.23125 41.25781 26.82469 24.06375 24.31391 31.8225 30.93359 27.90375 29.44078 36.015 45.25844 53.43672 50.1939 62.19625 72.82859 86.1325 95.60156 86.77812 98.53078 77.39875 58.71094 53.69922 51.43703 46.43625 42.81594 33.95813 22.94172 20.24563 19.92562 19.79359 25.72953 41.19781 35.33141 27.02203 21.57766 19.90578 25.145 32.69578
9.95261 9.99811 9.996391 9.999078 10.00141 10.00488 9.973156 9.700953 10.70409 23.64656 29.78797 35.22094 41.04016 58.79406 83.2175 75.61906 59.31016 63.85328 78.61656 85.1036 65.93282 40.2561 37.04047 55.97422 74.26891 68.71812 67.76422 62.74031 69.22515 68.23937 86.51594 77.07938 52.10125 34.86656 30.88453 33.79172 38.55188 53.72485 48.35609 25.11109 10.56561 6.22 14.86102 29.58359 14.52614 15.03273 31.21297 29.87437 17.29791 4.600459 7.987334 36.86719 53.31516 36.77047 31.10641 28.27844 30.37734 19.62556 13.14587 25.76734 19.35069 9.460593 4.902312 15.88294 14.225 17.65734 20.31672 17.38297 10.2253 11.96828 11.12453 6.823673 0.75155 0.7814313 0.7987594 0.7896547 0.9205844 1.366047 1.70625 1.775031 7.899485 6.603531 6.636266 6.877687 9.631688 4.728328 3.524891 5.587156 5.979437 6.242875 6.338109 8.228312 9.166094 11.56984 13.55188 14.06 16.97016 20.35531 26.9225 30.40562 37.66969 37.14359 36.49828 41.22656 47.50156 55.85109 47.72297 27.32047 34.87219 41.04219 24.83906 14.73859 7.215 21.47062 48.54719 56.16813 37.965 26.22922 18.49953 14.57578 26.72266 31.56422 25.26344 27.22234 32.65547 35.42547 38.395 38.58359 39.15922 45.60359 63.99422 70.49828 75.23531 78.29704 71.30797 91.56937 85.42687 61.08328 45.54187 39.67984 31.70703 31.00734 29.81672 25.39422 25.66844 21.81 25.25219 32.18219 46.77219 33.42984 20.49625 11.86187 11.11631 19.18687 24.40875
9.904515 9.981797 9.999531 10.0077 9.996125 9.977578 9.937735 11.26008 24.00672 39.44812 48.23563 53.87141 64.11313 78.48594 95.37891 82.57562 58.9936 42.97781 50.41297 55.96891 54.25187 34.34141 20.65524 33.38573 57.91797 54.32766 44.65812 42.76719 45.09453 57.34109 82.95281 90.02281 75.2961 48.74219 32.26953 17.10734 16.66172 34.38422 51.84828 40.17672 20.86412 6.863389 4.588311 22.2663 11.60362 6.097486 14.57422 23.50038 11.09102 0.9174891 6.621138 28.55269 51.30469 37.62313 28.05984 17.80453 18.00078 18.605 10.32672 18.80059 24.15219 17.18875 8.854843 11.12134 3.715172 8.157657 15.20531 8.424875 3.188266 1.678719 1.269172 0.8222453 0.8379797 0.8849109 0.9483641 0.84215 1.042453 2.031984 1.933937 7.171141 15.11016 14.77188 14.95391 16.69422 20.85359 13.18225 7.81725 7.786313 10.86208 10.86227 13.13078 12.93672 12.03859 11.00313 11.11328 13.18609 15.62703 24.03641 33.63953 37.78531 46.69234 42.25344 44.49797 52.99281 61.38328 58.81688 45.61609 27.87969 27.06906 48.20953 38.48766 19.93813 9.402094 11.54988 26.91097 29.57422 15.77728 10.27302 11.98864 20.12156 25.50359 18.34969 26.86766 36.19781 45.99641 47.08953 49.72 46.46672 43.83594 42.94922 49.69609 56.63578 69.14578 69.63047 69.28359 74.38 81.92281 74.13563 54.92469 40.76188 32.98266 31.50797 38.39547 42.05578 37.89344 29.05172 36.41344 45.25563 47.41312 31.91453 20.22703 10.91037 9.916984 12.74312 16.89734
9.961687 9.995859 10.0032 10.00341 9.999532 9.957859 10.78755 13.29852 24.98156 38.34484 51.07844 62.63875 79.65 94.97031 105.2578 94.88172 68.27235 44.21656 31.42438 26.36844 25.76828 21.99855 12.63488 17.09023 38.78281 50.19297 41.41094 34.01969 33.33344 47.94672 74.57406 81.84344 76.73047 64.67219 45.30109 25.17312 10.70438 15.77078 31.45516 33.46859 16.55942 3.309334 0.9490687 10.11643 9.081168 0.7075641 0.982525 17.24544 10.13855 1.107359 9.119312 30.91219 52.56047 54.31 41.13422 26.64266 13.29234 10.77677 7.071687 12.23414 23.77391 22.59687 12.78867 12.12602 2.839313 6.979844 16.52609 15.11469 6.868813 1.771594 1.026656 1.011981 1.061141 1.066148 1.272359 0.8805922 1.401781 1.714359 2.259828 6.288485 16.79938 20.94141 23.87891 26.24187 30.95844 21.71 13.10648 11.27398 15.93547 15.59594 20.02719 24.58078 20.21781 18.22797 17.07719 17.48078 15.91766 19.02266 24.35781 28.87484 36.06141 33.68656 42.27875 56.72797 56.80875 41.9164 34.96016 25.42578 21.25266 44.63406 44.47156 30.76969 10.97409 6.245937 14.50516 18.24016 8.646375 16.67156 21.84891 18.81313 17.25016 28.26328 43.775 51.19188 38.65172 32.03375 29.76813 27.86922 28.91906 38.52625 39.9739 47.78047 61.99141 62.82172 59.71234 60.16093 66.71593 73.76125 65.73547 48.93641 37.89422 43.01188 54.77828 53.82859 37.31109 32.28109 44.41703 45.92015 38.71297 28.96859 18.41078 10.18614 6.965094 5.812438 10.69759
9.592469 9.998047 10.0007 9.994187 10.00617 10.06184 14.37278 24.99578 40.4425 56.7675 69.1339 73.80437 79.74531 86.03828 88.94687 86.50672 69.73172 55.45953 40.47594 24.04266 10.08187 10.12472 9.961437 9.985781 18.51484 35.09766 39.30391 39.36734 29.98969 37.46938 59.04203 53.44266 46.02266 54.17922 57.18703 34.85984 14.15594 10.38406 13.48484 14.65742 7.773711 0.7550375 0.7555531 0.803575 2.459567 0.7742047 0.5988531 15.17981 5.043211 0.9844062 9.417179 32.91141 48.05422 43.69594 32.91469 19.57469 11.26805 9.164266 4.715828 10.13555 21.97 21.71563 11.33711 10.43773 2.503844 3.282813 12.23102 25.42484 16.06413 5.341672 1.948414 1.187942 1.074266 1.077156 1.357391 1.172389 1.414438 2.688344 3.425609 5.146766 9.830546 15.90859 24.18203 35.00906 37.56703 25.20687 16.09516 18.36062 20.54719 21.71156 23.97484 32.68 29.03187 25.53344 23.05844 24.55344 22.40047 20.72031 20.59453 22.00453 25.03719 27.85453 35.08735 44.57328 54.45953 37.31953 25.55469 22.16406 15.05781 20.87234 32.56688 25.59547 8.569485 5.806015 11.68125 10.1093 7.891297 17.92781 31.62469 39.15141 26.14 38.47813 54.86094 52.59422 33.07438 21.86578 22.67438 28.98797 36.24641 42.12078 40.33797 45.07188 51.35781 48.28266 44.57953 49.37031 62.45187 73.79328 73.41203 53.95047 46.46375 58.97516 64.69469 48.33172 35.40485 39.60922 48.835 41.80766 34.13016 23.3975 13.85961 6.378797 0.4645468 -3.799125 2.321187
9.778829 10.01078 10.0057 9.990985 9.99789 9.908031 12.68959 26.48937 52.09547 72.48235 79.75266 80.00844 78.06547 65.54109 61.92703 62.17891 49.87156 45.81922 34.99891 15.82141 10.88975 11.60211 10.51742 9.993375 10.47116 12.50781 23.40516 38.85797 31.06234 33.52703 49.73875 41.60875 18.71844 31.8375 45.97031 40.45922 25.03672 12.83953 10.0025 9.646266 3.01185 0.7560078 0.7786641 0.8312656 0.8342672 0.8447797 0.8109984 5.045832 1.087606 0.8843344 9.482921 38.96407 41.30781 25.60078 18.11875 17.50766 18.41733 11.56359 4.341953 6.236312 16.30906 23.83203 19.32266 11.30125 2.656047 2.236172 4.644844 23.53906 23.143 13.12767 4.235094 1.014752 0.9429031 1.065164 1.2785 1.205687 1.30708 3.840719 3.422281 8.434015 12.86983 17.72797 29.22563 37.15297 29.38094 22.59641 20.12609 29.14828 29.00234 26.93578 21.46938 30.81187 35.17328 32.79922 25.50234 17.04188 22.09266 27.82672 27.07359 28.27375 30.67453 35.76484 35.99297 40.45781 56.61828 53.20313 37.06094 36.78453 20.26072 11.05276 11.64839 7.938328 4.724891 3.366609 4.886375 4.895844 14.16939 28.69484 42.76203 54.415 36.49641 49.76859 54.07484 41.92188 24.40156 20.21578 30.19312 42.31109 44.00422 44.4075 40.19969 40.45453 40.84125 40.51641 43.01484 53.33609 69.51453 82.84828 82.6936 65.56469 61.48797 74.12703 60.25985 42.08735 41.26594 55.51719 56.82813 43.15016 31.02437 19.14531 8.722734 0.543889 -1.53703 -1.403408 1.835022
10.03625 9.991375 10.00012 9.989328 10.00891 9.994016 10.00245 17.18997 38.60453 63.33313 75.67297 77.9264 69.94047 48.56656 41.18609 42.24609 33.35078 30.16531 30.16922 24.91547 29.31578 26.24797 15.93234 10.17484 10.00747 10.01181 13.6065 24.79203 28.00734 19.70359 36.07312 42.42765 16.33209 12.13922 18.73422 21.05703 24.87008 14.05352 9.988672 6.481203 1.226825 0.8742203 0.8652359 0.9035313 0.9403687 0.9197218 0.8771515 0.8852062 0.8386203 1.511727 13.23948 36.23806 43.39687 31.39203 29.61234 33.02547 24.67531 13.46609 6.079218 4.229469 15.71616 25.09734 20.19656 8.307703 3.192281 1.837203 1.196836 12.99409 23.02969 7.903281 1.342984 1.219134 1.059864 1.475727 1.197695 1.150066 1.27543 1.184945 1.216133 7.359527 20.46219 24.60687 32.39906 40.07625 37.68656 30.78531 24.34859 24.44563 21.82734 24.94341 12.72059 12.42369 15.895 24.13078 28.04406 16.41187 15.89766 28.60016 33.90641 36.87391 41.41344 44.87782 45.32 46.04422 54.23359 47.06781 49.00531 44.28078 30.67203 19.45422 7.619219 2.482141 2.571125 5.469766 10.13633 12.97391 22.76203 39.45515 60.97703 67.07468 53.02719 49.97734 34.36719 25.39641 17.69344 20.91328 37.07422 44.01797 37.02594 38.33406 39.99656 39.98781 40.82438 46.79641 55.31359 65.92641 75.10406 83.34844 73.07813 71.20922 77.24001 79.76813 57.63766 46.20078 48.98719 58.55016 49.08766 40.01265 31.11813 19.61766 7.45068 -0.8448797 -0.4536735 -1.61557 -5.922328
9.998219 10.00203 10.00391 9.998265 9.997828 9.995469 10.11891 11.18758 22.06391 39.84281 47.52953 61.45047 68.47735 54.30797 41.38766 36.86187 35.2211 33.90625 34.6375 37.1764 33.8525 28.99406 19.50813 10.97719 9.99839 9.996407 9.970625 20.62984 28.26391 14.21531 19.71844 21.27953 14.97911 10.01492 10.02 10.01013 10.04941 9.713515 8.868906 5.424328 0.8188047 0.8166109 0.8484703 0.8563375 0.8770344 0.8883812 0.8821859 0.8954281 0.9644359 1.093047 4.226016 12.08286 33.55516 40.7361 42.72828 43.35875 30.67328 18.07859 8.185703 2.70775 5.869922 13.22078 17.58984 14.66391 11.14295 2.501391 1.765766 1.040352 10.33986 6.581377 1.025127 0.9025469 0.9941781 0.8854406 0.9268156 0.9949172 1.158503 0.8740625 0.8108828 7.748595 20.00031 19.58219 22.21344 31.47828 44.98406 39.49484 25.14172 11.51906 10.82952 9.435984 5.827391 10.51609 17.51766 25.78641 28.28484 15.55531 9.111266 23.90141 32.71156 37.94109 48.76703 46.42156 44.40906 49.60266 45.57281 30.67984 29.82203 38.865 40.36625 28.02516 11.71906 2.820344 3.480984 12.24305 17.72547 17.62984 20.49438 29.32453 41.84797 54.89609 45.85516 39.12578 35.69765 22.88219 15.525 21.57172 34.30219 36.96781 33.00375 36.45438 39.39656 39.99062 42.85812 54.69734 63.8825 67.03391 66.07 63.69703 50.18297 50.38875 66.22031 53.75625 37.59687 40.71859 56.0836 52.66375 39.71922 31.67 24.57156 15.65775 1.809898 -2.38093 -1.37982 -3.243586 -5.449797
9.997984 9.992656 9.999609 9.99686 10.00252 9.996016 10.00813 9.939531 11.65359 18.60687 26.21938 49.87469 59.99297 59.87594 57.73687 55.58062 50.60234 43.28828 38.69141 30.63969 15.01578 13.23352 11.11867 10.20906 10.00425 9.999063 10.10805 25.39859 29.41547 20.11609 10.64188 9.930938 10.02622 9.995781 9.999297 9.995203 9.937843 8.830235 6.575078 3.713234 0.7397422 0.7755094 0.7807281 0.7757203 0.76705 0.7922484 0.7858578 0.8323266 0.825186 2.119766 4.213828 13.167 22.545 39.20172 46.02594 31.33531 18.23945 9.584454 4.641953 2.393453 5.639375 11.25359 15.87266 24.16469 14.25608 4.055844 2.222172 1.234219 1.794609 2.261158 0.9351422 1.102297 1.351444 0.941925 1.187128 1.289534 1.104245 0.8684766 0.7556094 9.761978 13.40453 10.43961 17.0525 30.55094 50.42313 50.3925 32.75422 15.67766 3.123969 2.874813 11.48653 20.94062 12.70094 17.02664 19.40594 11.42844 7.743531 22.39437 20.77875 28.74656 43.39594 35.57078 33.70281 43.44016 49.21109 45.25875 29.22516 21.7275 17.61641 13.60211 5.902657 2.778703 2.946766 9.007187 11.23375 10.52234 15.31703 23.13 30.40734 51.72109 43.99422 25.22891 23.46875 15.40484 13.77812 21.49125 28.35063 35.46312 36.46 36.58953 38.89109 39.92813 40.34875 44.91766 48.09109 54.97688 62.39109 54.52828 36.40484 44.96219 58.24922 39.04609 29.95313 31.27875 43.69531 42.99578 36.40672 27.60203 18.67312 8.46039 -3.219375 -3.808719 -7.568 -7.532063 -8.083391
10.00733 10.00219 10.0032 9.992109 10.00098 9.995 9.995937 10.00019 10.01577 12.74102 25.14641 44.58812 49.62687 53.71719 44.74141 47.84594 50.79344 32.31625 20.90766 15.42469 9.910984 9.987266 9.995937 10.00623 10.00066 9.997579 9.97539 16.47231 29.16625 20.54578 11.64563 10.01091 9.998656 9.997985 10.00392 9.989563 9.925406 8.458531 5.408766 2.658016 0.7768813 0.783936 0.7830766 0.7596906 0.79095 0.7724937 0.7681109 0.8076282 0.9679422 6.116516 11.24467 25.47911 34.55578 36.04641 40.49953 31.62703 18.70386 10.39494 5.1165 2.384016 7.030844 19.35219 21.73109 27.61719 13.43728 10.34498 4.469125 1.098094 1.561387 1.457503 1.500206 1.134178 1.207661 1.244648 1.502906 1.234375 1.126 1.122873 0.9429281 1.88147 4.388672 8.151641 19.54344 36.12719 52.19906 54.59156 34.99625 16.70125 7.345313 2.635766 8.908891 19.31344 9.125594 9.134063 11.34516 4.022609 3.728484 10.09711 11.67266 24.45406 31.85172 32.46359 24.69328 30.13578 35.29125 42.40609 43.23891 35.88656 18.30722 14.30773 5.320625 2.666094 2.704031 3.240484 5.743219 11.46206 22.92531 33.61156 41.14516 52.77766 35.4011 19.82578 11.55688 11.68528 13.45906 17.32937 24.56141 32.11016 38.60968 38.85219 39.76859 39.94797 40.03047 40.1811 43.31234 53.3825 57.81109 43.19297 30.86875 40.72281 52.59391 34.28359 30.03281 31.13859 40.1275 39.56719 33.61797 21.80406 10.44136 -0.2341125 -2.814972 -1.799375 -6.504313 -8.992126 -9.673532
10.00727 10.00352 9.996718 9.99661 10.00219 10.00547 9.995313 10.00016 9.999703 12.3148 23.10144 37.345 34.36515 35.78672 31.17031 29.76141 38.2525 28.00187 14.19312 10.00648 9.997641 10.00269 10.00183 9.999219 9.9965 9.99986 10.00509 10.00717 9.986437 9.995922 9.976469 9.993265 10 10.00542 10.00519 9.995687 9.89786 8.254421 5.112703 2.092 0.8367031 0.834711 0.8197656 0.7838828 0.7952515 0.7927734 0.7913985 0.7708594 2.83385 20.36984 31.48156 39.94406 28.05734 25.0075 29.66844 26.11406 21.79822 15.35203 6.097578 2.063094 4.83075 18.03891 26.27594 33.87703 30.08016 21.39937 8.501719 1.737781 1.10168 1.101055 1.279297 1.209352 1.135484 1.119047 1.059438 1.110219 1.413578 1.260336 1.303305 2.500172 4.443438 8.922734 17.11109 31.63515 48.49453 48.49453 28.38359 11.26402 3.813797 2.858203 2.507109 3.355297 2.722156 2.608734 2.489516 2.679828 4.218297 6.139312 9.291656 13.8395 31.01219 39.8575 30.04813 21.25297 18.73953 22.63906 37.84766 46.25063 38.01141 24.74063 7.798984 2.380531 2.506297 4.349609 10.16977 15.39172 24.23969 21.91922 22.3825 41.36203 32.79172 15.75403 10.28927 13.09955 16.7925 19.28297 24.865 30.74625 36.67219 39.98141 39.97906 39.98359 39.59 40.2225 50.06469 66.25531 55.44062 34.17297 29.97609 38.72984 37.45406 26.44781 28.2525 32.67328 38.14203 31.10453 26.64828 15.06953 2.70435 -2.223869 -1.056181 -2.595886 -7.302234 -7.615484 -6.916187
9.987797 9.995812 9.997141 9.999109 10.0028 9.99864 10.00255 10.00587 9.998578 9.981406 11.21469 22.41966 25.8125 22.08219 19.47359 16.52219 16.94234 15.32703 11.83328 9.981328 9.999469 10.00002 9.992516 9.996219 9.989578 9.998593 9.997656 9.991032 9.998688 9.999297 9.9975 9.997016 9.996718 9.998921 9.996813 9.999578 9.869141 8.0335 4.900219 1.804547 0.9500937 0.9443797 0.9233328 0.9047813 0.8973765 0.8846313 0.8543422 0.8246219 1.723742 14.67965 38.48672 40.68234 24.29281 19.82531 24.31281 14.89484 9.661032 5.873547 3.0255 2.188328 2.414906 6.336438 12.33519 22.67719 38.74484 30.54172 17.77453 3.788297 1.122881 0.95575 1.07525 1.402402 1.364541 1.321805 1.212625 1.10488 1.256125 0.9756256 1.176329 6.100781 11.06234 13.30188 23.85031 39.69 41.05141 31.76359 21.67531 14.00164 9.433516 5.493203 2.886484 2.589203 2.785047 4.072344 5.534609 6.728765 13.72227 16.15305 24.08391 27.53 33.30891 44.33453 39.52203 34.72422 26.73953 20.03781 19.23195 26.63195 29.4905 19.15562 8.15461 2.263109 2.458062 7.639453 15.24562 16.39653 19.2284 12.17597 14.37144 31.15734 22.05464 8.759922 10.55469 20.20094 27.62578 27.45734 29.30031 33.1 37.88453 40.02719 40.02953 39.60656 34.78453 41.67875 59.26 62.64437 44.35922 30.72984 29.9775 36.62578 30.37141 17.95781 18.3625 28.21781 31.46828 25.92469 24.395 12.04906 -0.2298691 -0.3936656 -1.350688 -4.70418 -8.361328 -7.205906 -5.310125
10.00147 10.00081 9.994719 9.998719 10.0028 10.00098 10.0002 9.997828 9.994515 9.999609 10.00086 11.40013 15.18672 13.12117 11.49148 10.18336 10.02594 10.00438 10.00633 10.00992 9.997359 9.996109 9.99525 9.998172 9.995438 9.998281 9.995781 9.996032 10.00392 9.998593 10.00344 9.995922 9.991406 9.997203 9.997828 9.995359 9.842891 7.836313 4.718656 1.726187 1.146813 1.074333 0.9962937 1.113781 1.008166 0.997514 0.9371468 0.9045672 0.9222187 3.602617 20.91187 23.24562 22.55922 14.91594 20.60266 21.39641 14.17814 7.178391 5.237765 3.415906 2.547719 2.560109 6.486594 17.89422 28.99562 24.89406 12.75578 3.436031 1.720967 1.366336 1.471969 1.516191 1.646103 1.509773 1.540437 1.356442 1.201055 0.6505787 0.9297584 3.293125 13.72141 19.42766 26.39562 43.89703 39.46156 22.96984 14.83469 22.06047 17.81781 7.128515 2.768281 3.086859 4.55364 11.31367 14.84898 14.47533 19.17578 25.03156 29.79641 28.01906 31.93391 41.62203 37.77828 37.02656 34.23016 29.10188 19.14367 12.02492 8.803938 6.053047 3.881719 2.115609 2.578766 9.485156 11.46164 6.46575 6.347078 4.914953 6.430734 12.35469 7.484015 7.343125 13.53086 26.24781 36.62031 30.61984 31.34172 35.89844 39.39781 40.03578 39.19828 33.92453 35.11187 53.06078 62.75922 47.19281 32.135 25.44469 27.95016 31.48438 24.49562 12.49141 13.07187 25.90453 29.78 23.75359 13.41844 3.5575 -0.06130796 -1.057924 -4.806422 -8.941438 -10.04766 -9.785359 -10.5345
10.05342 9.993578 10.00498 10.00102 10.00109 9.99686 9.991781 10.00631 9.998125 9.998047 9.999453 10.00486 10.20455 10.04675 9.98964 9.981484 10.00158 10.00522 9.998734 9.999516 9.999734 9.999719 9.99964 9.998953 9.996469 10.00527 9.99925 10.00708 9.99339 9.996437 10.00292 9.998515 9.996094 10.0018 10.0032 9.992219 9.821844 7.681234 4.907953 2.227156 1.0526 0.9799312 1.056947 2.309847 1.505542 1.004602 0.9838672 0.9202969 0.9242344 1.09675 3.84875 4.935937 19.01859 12.78308 9.735031 12.99055 11.08153 8.253265 5.480297 3.905266 2.832344 3.762594 9.692438 19.36559 22.90984 11.43431 4.949312 1.960344 1.761172 1.660047 1.966766 1.864078 2.145109 2.232234 2.063875 2.078078 1.582683 0.4159531 0.5113672 5.713828 16.09453 26.02641 31.57641 47.21484 42.06469 21.49531 8.536016 16.23173 13.24075 3.521812 2.808531 2.958375 6.020031 15.17125 11.76375 11.44756 16.83078 24.76063 23.27391 18.745 29.73531 42.38187 36.3264 22.74047 25.06437 30.57141 31.07609 26.61672 11.74294 2.675641 2.023844 2.027172 2.610719 6.716813 3.975172 2.360984 2.574312 3.258938 3.747062 4.812297 6.303672 8.9645 13.5713 28.48141 34.41469 30.06437 33.73235 39.2575 39.75187 35.55344 31.16125 32.78672 42.56375 57.06656 57.44078 41.56453 29.52391 17.15375 20.72875 29.35078 20.24606 10.15906 10.22484 17.59922 30.49703 29.15219 13.57672 0.9656 -0.2636253 -0.4627327 -3.543653 -11.23294 -13.04766 -12.40641 -12.72281
10.0675 10.00592 9.988188 9.960485 9.977094 10.00314 9.996187 10.00655 9.994094 10.00291 10.00181 9.992344 10.00872 10.00578 9.993828 9.998235 10.00705 9.997625 9.994813 9.998938 9.990376 9.999297 9.99789 9.99775 10.00737 9.996531 9.997391 9.99989 10.00097 10.00539 9.996641 10.00042 10.00755 10.0032 10.00375 9.994968 9.862657 8.244047 5.95225 3.051687 0.7947937 0.8254063 0.7707813 1.367373 1.484578 0.9700922 0.9801313 0.9344172 0.9343343 1.012581 0.9588547 8.562579 20.27375 14.15234 10.00805 4.754953 3.616984 3.222906 3.47775 3.357438 3.142484 2.936156 8.476547 15.28748 18.42034 12.63014 7.033187 3.272297 2.757094 2.004109 1.817469 1.699209 1.779345 1.558937 1.809852 1.844031 1.670797 0.6802204 0.4585486 7.130431 17.60925 25.51844 37.79422 48.62047 37.05328 17.20936 4.996156 6.402609 12.61684 4.428094 3.028328 3.065281 3.056844 3.18875 2.969297 5.431016 10.93709 18.77041 16.13377 13.87323 25.23031 37.31672 29.96984 19.14094 13.57469 15.36669 25.28309 30.20875 12.98678 2.152109 1.933984 1.935984 3.133578 3.517266 2.105547 2.302063 5.673047 10.05273 12.79875 11.06297 10.24091 14.635 19.25297 28.80078 21.82203 27.47094 36.15766 38.90031 29.84281 30.03047 31.84688 39.14859 42.65343 43.87172 46.03266 40.54922 35.39844 19.17511 11.65792 18.48527 13.2512 10.01211 9.744453 5.694984 8.512303 10.19416 3.084527 -0.5804459 -5.604813 -6.191297 -4.307625 -3.443406 -10.43689 -13.25187 -15.27922
9.907938 9.926844 10.38114 11.9343 11.56188 10.20963 9.998297 9.997109 9.996718 9.998125 9.997188 9.997078 10.00031 10.00531 10.00039 10.00808 9.995969 9.997266 9.996875 9.994141 10.00641 10.00727 10.00102 10.00417 9.997859 10.00031 9.999063 9.999907 9.999374 9.999187 10.00153 10.00586 9.999454 10.00102 10.00609 10.00594 10.00103 9.660859 7.851094 4.259578 0.8096203 1.025656 0.9878829 1.128867 1.146698 0.9471235 0.9090219 0.9266281 0.9098468 0.9368156 0.8918781 7.575283 15.21494 13.67578 17.84406 15.69313 9.140469 5.212969 2.965938 2.972719 3.102766 2.597516 3.652516 2.94025 2.447641 2.449922 2.819531 2.348531 1.840753 2.715563 2.318297 0.3043407 0.03790624 0.1370823 0.9040198 1.196691 0.9760901 0.1902867 0.231711 2.271686 10.99984 22.6325 36.18172 42.58141 28.88547 17.48187 8.178359 2.988078 4.453344 2.776844 3.526453 3.746094 3.720156 4.372469 3.433484 3.119141 2.610359 4.221594 7.220578 5.949016 9.826765 22.71188 31.96359 28.96328 24.03391 18.11734 9.96211 12.39756 5.28736 2.090656 1.991125 1.892797 3.982484 2.166797 2.298828 5.950516 12.97281 20.195 26.81141 21.23266 15.18594 15.99766 18.38516 19.77375 18.14672 26.9675 33.77687 30.35203 30.01203 30.81922 34.67937 40.37078 51 43.49313 35.40406 39.16766 36.54937 22.87984 12.99391 11.7232 12.77539 11.40602 7.426797 1.464737 -1.878109 -1.251376 -0.4411844 -2.702415 -10.43906 -10.85766 -8.294687 -4.496438 -6.795218 -13.95297 -16.4225
12.78216 12.97411 10.74364 22.08969 22.07094 13.83673 9.965641 10.00594 10.00094 9.99875 9.99625 9.999344 10.00047 10.00305 10.00437 10.00948 9.995344 9.995703 9.994922 9.996172 10.00094 10.0068 10.00211 9.996828 10.00442 10.00555 10.00273 9.999046 9.999453 9.997703 9.999656 10.00586 10.00078 10.0025 10.00484 10.00672 10.00025 10.64531 11.56563 9.231766 4.349347 1.895734 3.60339 6.785453 1.102441 1.103756 1.54378 1.351128 0.8866906 0.7372219 0.3980656 1.551048 3.817047 4.093672 11.28305 10.42289 15.40859 13.47117 5.346406 2.711937 2.69925 2.890484 3.423219 2.774078 2.511156 2.709297 1.89875 0.7942265 -0.5060359 -0.03412498 1.373648 -1.290698 -1.58468 -1.425574 -0.6144177 0.002893745 0.008927657 -0.2186898 -0.05852343 10.16708 23.49344 33.54813 41.85516 40.15562 30.43938 24.12953 11.63422 3.634016 3.695922 4.01075 4.475594 4.934922 3.550313 2.437633 1.112359 -0.7203828 -1.209859 0.08998436 0.5057266 0.8817422 1.410516 4.925899 22.42289 31.28203 29.12297 20.87687 14.19039 7.212563 2.253375 2.244094 2.075813 1.669672 2.304828 1.885078 2.616328 7.170828 21.58359 27.71922 32.78094 24.66313 15.21328 12.64063 13.63359 14.44719 17.33813 25.10266 29.62687 30.01063 30.40578 35.11766 39.0325 42.27391 56.90234 45.27359 32.13375 36.90672 38.97828 30.13766 22.09547 23.0625 23.96547 16.19391 6.618594 -1.340028 -3.434234 -4.31625 -3.602414 -8.303905 -11.68047 -11.79984 -11.84625 -9.706125 -9.058187 -11.41039 -17.26781
23.44141 22.30789 13.57742 21.64719 28.87453 20.82595 10.49705 10.00219 9.991984 9.99975 9.997797 9.997391 9.993766 9.985203 10.00348 10.00158 10.00692 9.999281 9.999125 9.999125 10 9.99986 9.99986 9.992672 9.998625 9.999 10.00064 9.999828 9.99989 9.999625 9.999547 9.99725 9.996328 9.998578 10.00405 10.01 9.988063 11.39297 16.21516 14.51813 8.8615 8.27964 8.811281 13.37072 2.956937 1.177359 1.487281 2.197844 1.582125 0.2108 -6.969692 -1.221035 2.215516 1.888391 2.248078 1.981203 3.5335 4.334015 7.286829 3.51386 3.371312 2.222016 2.671 2.3585 2.424594 1.687159 0.3762078 -2.479658 -2.862952 -2.951672 -2.742851 -2.626642 -2.505859 -2.083734 -1.149953 -0.3149703 -0.1427014 -0.195143 0.6771297 19.27013 37.31813 48.97719 51.18656 45.38891 41.40328 28.08 9.253828 4.740234 5.022938 4.905766 3.946703 1.810297 -0.1257141 -2.212077 -3.404569 -3.662405 -3.814372 -4.356494 -3.340955 -1.052611 -1.024536 0.5704563 3.178365 17.54603 30.13906 27.95422 19.12766 5.140969 2.430687 2.239453 2.225234 1.526047 1.923047 1.835172 1.954781 2.737422 13.57609 20.21625 25.08109 19.94563 11.35828 12.31422 14.15406 14.29219 17.76219 23.94906 29.03969 29.965 30.99562 39.29562 39.97453 41.24641 45.88578 39.08828 29.40547 28.59734 32.68937 30.23297 29.48844 29.69563 28.64812 16.06689 6.067281 -2.167516 -4.924906 -5.163437 -5.963906 -10.85847 -12.12313 -13.055 -13.03469 -13.24016 -15.30167 -11.98812 -16.12039
27.52669 16.95373 10.67858 9.335375 14.77641 10.64803 9.968813 10.00394 10.11934 10.00403 9.996297 9.994968 9.993859 10.0015 9.996891 9.999719 9.998844 9.997016 9.997875 9.99825 9.997859 10.00387 10.00309 10.00109 10.00984 10.00547 9.999922 9.999985 10.00891 10.00953 10.00297 9.999719 10.00695 9.99875 9.999531 10.00711 10.00053 10.94891 16.83781 18.06063 14.97859 15.86812 15.37437 14.59612 10.59507 1.156986 0.9706187 2.420778 2.592489 -1.84968 -7.278141 -8.896188 0.1514688 1.243316 1.553034 1.558987 1.394695 1.207147 3.869428 5.263198 2.218958 1.874766 2.378594 2.649063 1.866387 0.01932671 -2.060236 -2.912734 -3.113969 -3.10575 -3.002625 -2.589234 -2.797312 -2.295922 -1.27343 -0.3651406 -0.1314891 -0.4997469 3.866495 23.68756 45.30547 56.23938 46.40187 31.98047 30.22419 15.3025 5.377969 4.860813 4.413695 1.615773 -0.3334765 -2.76692 -3.150359 -2.885172 -3.31775 -3.829141 -3.917484 -4.185281 -4.596687 -3.784734 -2.593188 -0.2791308 0.01207809 0.5377316 21.85922 23.32 15.06375 14.74469 9.579812 3.844703 2.141109 2.183203 2.424515 2.3725 1.622813 1.692703 4.668656 11.72727 16.58937 13.01438 10.16273 17.39047 26.00453 22.85312 23.11484 27.35141 31.81703 36.45375 39.51922 39.84547 39.58375 38.15656 31.30203 28.05469 22.425 27.65609 29.99125 29.99875 30.01672 30.01344 27.36687 14.62566 6.440031 -2.491844 -7.039192 -2.766716 -7.545208 -12.82609 -13.38594 -14.16547 -14.39672 -15.85812 -16.08453 -16.60328 -19.91266
19.99859 9.475859 10.25477 10.14656 10.01062 9.996203 10.39698 12.13172 15.13609 11.04062 10.00141 9.994452 9.989781 9.995438 10.00302 10.00234 9.996531 10.00789 10.0057 10.0032 10.0005 10.00156 9.999063 10.00547 10.00528 9.998781 9.999093 9.998563 10.00453 10.00625 9.998203 9.998547 10.00031 9.997844 10.00136 9.997734 10.02063 10.40469 14.81484 20.02016 17.82937 17.93453 12.35758 5.094969 0.8547328 0.8982844 0.9768781 1.797656 2.407938 0.3059218 -5.2765 -7.178875 -7.15425 -2.50525 -0.3334844 -0.1427734 -0.135162 0.07658985 -0.03601407 0.1778469 0.4412625 0.9292235 1.682802 1.992262 -0.3436016 -1.950148 -2.936281 -3.112234 -3.001516 -3.234 -3.099703 -2.967328 -2.825859 -2.852703 -1.54318 -0.4296438 -0.2796391 -0.4401172 5.115586 23.42539 44.02563 54.22672 37.10719 15.69375 8.385297 4.56075 3.9395 2.254566 -0.6219453 -2.578977 -3.523625 -3.528406 -3.903172 -3.811109 -4.124703 -3.690922 -3.396375 -3.914859 -4.303453 -4.359484 -4.108109 -2.374633 -0.7140219 -0.1204067 17.21594 31.93 29.48859 24.63109 13.19377 4.628766 2.777984 4.466703 5.130625 5.200562 3.354312 3.203766 7.696875 18.25062 17.9225 10.44809 9.853859 16.83359 28.77266 31.15469 32.68375 31.31047 32.52844 38.58531 39.72719 36.29453 34.14141 38.92359 28.00438 20.78172 22.12391 29.17297 30.00422 30.00797 30.00875 30.0175 28.28484 17.12531 6.354765 -1.537769 -4.283961 -3.313477 -11.0168 -13.55547 -13.99531 -15.38984 -16.24219 -16.71094 -17.16547 -17.21953 -19.89531
12.09477 11.75562 17.22047 12.25422 10.05594 13.90456 21.53581 24.94453 24.14414 10.99617 10.00656 10.0043 9.999078 9.995203 9.996922 10.00172 9.99661 9.998125 10.00375 10.00922 9.994406 9.993438 10.00344 10.00078 9.999812 9.995969 10.00058 10.00489 10.00875 9.999297 9.999063 9.997766 9.998906 9.997609 9.999953 9.993906 10.21359 12.90391 16.58438 17.93109 12.37102 9.238828 10.06305 2.287313 0.8177875 0.8564407 0.8312063 2.422117 2.534187 1.724125 -3.592281 -6.115125 -6.009172 -5.026828 -1.680727 -0.5210313 -0.9545761 -0.6663633 -0.7814672 -0.8422781 -0.62255 -0.3251125 0.4481375 -0.5732172 -1.817156 -2.819484 -2.970422 -3.076609 -3.138391 -3.166422 -3.178219 -3.202875 -3.06875 -3.250281 -2.359156 -0.7442922 -0.4153422 -0.2785 9.31568 28.68484 45.88891 44.04781 19.19742 6.556484 4.263813 2.634195 0.2922422 -2.119731 -3.473781 -4.212531 -4.95425 -5.117938 -5.741765 -5.564625 -5.639156 -5.738188 -4.138016 -3.671734 -4.438844 -4.234015 -4.089828 -3.722797 -3.585109 -1.199597 5.353336 19.71437 24.71359 14.80836 5.724782 3.033609 4.269938 4.585063 4.626484 4.52986 4.359 4.551734 9.366094 27.67094 21.53812 10.147 9.180031 16.03906 23.67734 34.31016 36.115 31.74875 30.02141 35.18219 37.94359 27.01406 26.21641 32.31969 28.78328 20.46375 23.96609 29.53078 30.00578 30.0775 30.01188 30.01125 29.70906 24.10812 14.3368 4.705747 -3.789875 -7.406172 -11.90922 -13.43359 -13.89141 -14.77969 -16.35469 -17.74141 -18.18188 -19.44844 -20.21797
10.19866 14.17055 26.46 22.61547 9.866438 16.45188 34.10735 38.85719 16.62878 9.990657 9.998312 10.00875 9.99725 9.997406 9.999281 9.995766 9.999406 9.999109 9.999344 10.00875 9.998172 9.998422 10.62194 12.17562 10 9.998453 9.999234 10.00125 10.00056 9.995891 9.998547 9.999562 9.994532 9.997609 9.994875 10.0058 10.33827 14.13828 17.36563 14.41844 5.455859 1.242761 2.155245 1.601544 0.8510531 0.8526157 1.317702 3.506048 3.93364 2.138766 -0.3873281 -5.751859 -6.211219 -5.573359 -2.399399 -1.16857 -0.8750938 -1.105647 -1.028397 -0.9787094 -1.150805 -1.512867 -1.621433 -1.509502 -1.491031 -2.379406 -2.930813 -3.186375 -3.289328 -3.213859 -3.048078 -3.408313 -3.488141 -3.393391 -3.270734 -1.308353 -0.5748782 -0.282047 8.934336 24.95437 44.16219 31.11016 6.410625 4.384812 1.537955 -0.9294437 -3.344608 -3.980812 -4.402563 -5.518875 -6.077469 -6.310766 -6.415531 -6.661828 -6.568625 -7.192047 -6.876094 -6.060453 -4.153344 -4.539922 -4.250062 -4.194375 -5.326094 -1.418062 -1.887473 1.539462 12.24728 10.61867 2.62875 4.072328 4.914984 5.01289 5.031375 4.74075 4.423484 4.120594 5.151797 19.08719 20.10047 9.698609 8.598657 17.43281 26.47188 34.47313 27.76922 25.64859 28.79781 30.55375 38.16063 24.51656 20.69781 27.15172 27.19438 20.02203 22.16344 29.06641 28.26125 25.51734 29.47047 29.53094 26.95938 29.63219 28.77437 12.29136 -6.206906 -10.78192 -13.19387 -13.49844 -14.46547 -15.50359 -15.93406 -18.03297 -21.29828 -21.53891 -23.05062
10.11016 13.09477 25.80922 29.87469 15.64427 13.18258 25.80188 38.45063 19.96134 9.989203 9.994204 9.998719 9.999625 9.997609 9.998859 9.989157 9.999125 9.999359 9.998734 10.00086 10.00022 10.00614 13.16786 18.38156 11.81328 10.29828 9.997735 9.992672 10.00798 9.993781 9.997063 10.00744 9.994313 10.00269 10.00105 10.00503 10.52219 12.06278 12.2313 10.3565 2.670505 0.9978359 1.054297 1.03205 1.540087 1.660547 2.629406 4.549172 3.245281 2.864359 1.387063 -3.921335 -6.206047 -5.532594 -2.882281 -0.8558937 -0.9051062 -1.229086 -1.006219 -0.8571969 -0.7094719 -0.948989 -1.545723 -2.053359 -1.930516 -2.654609 -2.84711 -3.4785 -3.547281 -3.634 -3.506422 -3.431641 -3.511641 -3.483656 -3.77139 -2.768453 -1.110053 -0.4394984 9.088814 30.20031 48.29969 28.80092 2.130668 0.4159289 -2.050313 -3.967016 -4.538969 -5.629813 -6.405047 -6.612937 -6.675594 -6.694188 -7.180609 -7.019531 -7.324766 -7.096953 -7.523266 -7.238985 -5.256172 -4.437391 -3.832922 -4.900734 -5.969094 -3.612703 -1.787656 -0.792525 0.2813422 9.439867 6.761688 1.923984 4.184922 5.54175 5.535984 5.112312 4.630125 4.153297 5.837344 23.17641 19.96 8.547281 8.612485 20.36312 29.685 25.315 20.33547 16.88344 22.14672 30.63688 38.78844 27.64203 20.23266 18.88235 19.88531 19.78984 20.24531 21.42344 21.66531 19.58312 20.69016 22.02563 20.11719 28.33312 25.06922 5.441219 -7.249469 -11.61047 -13.11469 -13.86016 -16.43 -15.57 -17.63797 -18.65922 -19.80187 -22.20609 -23.77484
12.16398 15.92203 27.25328 30.35359 22.7668 16.15539 26.54953 36.98297 29.35359 10.43359 9.998047 9.995812 9.999625 9.998593 10.00242 10.30555 10.16389 9.950859 9.994765 10.00752 10.00638 9.988937 12.16722 19.16687 18.71719 11.51734 10.01031 10.00047 10.00481 10.00094 10.00094 9.997812 9.992922 10.00352 10.00117 10.0152 11.73688 12.41969 6.268672 3.518266 7.473016 3.098625 1.124484 1.446469 2.543437 2.477094 2.723969 3.909578 3.091609 2.878656 2.397719 -1.129164 -5.192531 -6.049937 -4.321187 -3.061344 -1.817225 -1.02485 -0.7615688 -0.6826203 -0.7965937 -1.151953 -1.476563 -1.682156 -2.406703 -2.6425 -3.150703 -3.472047 -3.494406 -3.481219 -3.564734 -3.507937 -3.512063 -3.596594 -3.684562 -3.966719 -2.002625 -0.5120391 18.39468 38.52281 48.79 14.32184 -0.3583398 -2.860129 -4.585485 -5.358687 -6.274156 -6.696531 -6.812375 -7.084844 -7.234453 -7.471859 -7.321015 -7.499187 -7.632547 -7.813953 -7.663375 -7.768828 -6.915625 -5.369438 -5.737312 -5.165203 -4.970047 -4.965359 -2.989203 -2.259906 -0.3795375 4.808555 4.102234 0.6029531 1.690297 3.306059 3.652648 4.238703 4.821437 4.247437 6.127812 24.41406 17.13984 6.624875 8.527016 21.86453 23.79891 16.21391 12.098 11.11984 19.18687 31.93109 38.82828 31.21609 20.43953 11.26384 15.78547 16.05781 18.62344 22.30437 25.07438 19.63062 12.63531 9.965485 8.327312 16.69947 10.22947 -2.8835 -5.50775 -11.08562 -13.57469 -15.19547 -16.75453 -18.35953 -18.4486 -19.80859 -21.15266 -22.74359 -23.5475
15.37297 15.02047 26.57047 35.88406 28.37469 22.66516 29.555 32.09 32.08484 16.65469 10.00625 10.00027 10.00509 10.00187 10.02953 12.77672 16.66834 13.08375 9.971406 11.96509 10.12083 9.996125 15.68417 19.86844 19.10859 13.24937 12.91813 10.23 9.99114 10.00141 9.998281 9.997734 9.989094 9.99789 10.01508 9.982469 10.61594 11.03547 4.755157 1.010133 3.47561 3.400031 1.515266 1.359594 2.179531 2.835609 3.032875 8.92575 9.890906 2.734672 2.484594 1.850445 -0.9932344 -5.439547 -6.795563 -5.54986 -3.837772 -0.7419438 -0.7472562 -0.6871828 -0.9726484 -1.243828 -1.516094 -1.885203 -2.305687 -2.702031 -3.107891 -3.666656 -3.028234 -3.541063 -3.774578 -3.60114 -3.618781 -3.892609 -4.034875 -4.581953 -3.417469 -1.681812 22.15537 43.70719 49.62516 15.11113 -2.554101 -4.182765 -5.786266 -6.515563 -6.871656 -6.983719 -7.256047 -7.36375 -7.50164 -7.855765 -7.750625 -7.892234 -8.069735 -8.048953 -8.002829 -8.042031 -7.437266 -6.334437 -6.763953 -6.36575 -4.307703 -5.669188 -5.103656 -4.005141 -1.263428 0.21173 -3.873781 -4.270328 -2.251734 -2.789488 -2.557898 -0.2236719 2.223516 4.052437 6.170781 22.77656 14.67813 5.439328 10.13233 20.36141 15.76844 11.07563 10.00355 11.84484 20.99391 29.51547 38.26266 35.83562 23.57078 11.68025 10.90812 11.52969 18.14609 28.98328 36.41813 27.45016 14.95875 2.513359 -0.5506203 -0.4597891 -4.313812 -8.151937 -9.769938 -12.13719 -14.35516 -16.98844 -17.71703 -18.59312 -18.70563 -20.26719 -21.92375 -22.82719 -24.16625
14.17812 17.38844 24.52203 38.50359 34.13766 26.78047 17.70547 12.11202 12.08222 11.88234 10.28547 10.01 10.0098 10.00177 10.52622 19.92453 29.75562 16.28095 11.18166 18.13842 13.45726 10.97828 14.68883 19.58719 23.17687 22.98438 22.53672 12.28809 10.00711 10.00514 9.999046 10.00753 10.00492 11.25336 14.03539 11.20205 8.239016 3.441894 1.360792 0.9005172 1.391688 1.454766 1.481797 1.971531 1.499266 1.690688 2.418734 14.03586 13.32813 3.059891 2.646062 15.36734 13.31747 -0.1207032 -4.842344 -5.600234 -6.101656 -3.55945 -0.8537313 -0.4420688 -0.607614 -0.933414 -1.766266 -1.809375 -2.639844 -2.989172 -3.323625 -3.72436 -2.988 -4.026156 -4.029203 -4.230125 -4.155 -4.237609 -4.461828 -5.241203 -5.201984 -0.4888282 19.38961 28.76203 37.43843 9.777797 -4.253453 -6.327328 -6.723875 -6.867032 -7.29375 -7.355438 -7.625047 -7.622906 -7.868609 -7.86275 -7.926172 -8.127687 -8.42425 -8.401875 -8.122391 -8.370421 -8.342609 -8.092219 -7.631875 -6.795906 -4.781375 -4.97289 -6.006406 -5.391906 -3.722106 -3.014546 -5.918125 -6.636266 -5.940719 -4.40275 -5.740516 -4.592069 -1.846623 0.9191797 6.370718 23.43734 12.33312 3.742453 9.418187 20.12922 9.770079 8.110344 10.4062 18.37375 27.16203 29.95359 31.29578 28.94766 22.66797 12.88984 10.01328 11.54187 19.79109 32.04953 37.65187 30.03375 21.24781 -1.756737 -0.4440256 -1.343367 -5.078406 -10.14983 -12.58125 -14.18328 -16.33328 -17.02203 -18.67547 -17.78563 -18.19031 -19.25297 -21.84172 -23.07813 -24.80313
20.51906 29.10016 28.49156 38.76797 38.43328 34.6575 18.02938 10.20592 9.98736 10.00402 10.003 9.988141 9.99814 10.00922 9.925157 19.9385 39.75828 29.84016 21.6925 30.95375 26.89906 16.39422 12.79109 27.86609 37.90047 39.02172 31.94516 13.47058 9.995344 9.998281 9.998594 10 10.32984 14.76344 19.91734 15.45344 7.577141 1.855237 0.8816359 1.224017 1.319911 1.077547 1.588648 1.387131 1.104125 1.344375 2.225 13.67758 7.013015 2.737375 2.762453 10.51103 17.73925 7.494438 0.3618594 -3.265894 -5.338984 -5.472578 -0.86125 -0.1925523 -0.1679806 -0.8368812 -1.53153 -2.001558 -2.469859 -2.675375 -2.981234 -3.334938 -3.421828 -3.819656 -4.279188 -4.773407 -4.806187 -4.676015 -5.128906 -5.438719 -5.332328 -1.385922 5.755172 -0.4603282 3.116141 -4.279938 -6.491266 -7.023313 -7.293812 -7.360031 -7.601593 -7.614578 -7.869766 -8.20825 -8.0695 -8.238828 -8.33625 -8.436125 -8.483391 -8.728844 -8.707625 -8.722125 -8.654938 -8.159235 -7.928016 -7.07475 -5.909281 -5.780859 -6.24925 -6.117969 -3.530391 -5.085437 -7.591094 -7.660609 -7.177797 -6.66011 -6.097391 -4.335422 -4.632453 -0.9769281 4.106248 19.99313 10.13156 2.48375 4.577312 9.130219 4.630844 7.643375 13.02306 20.44375 26.91094 29.43563 23.95031 19.68406 16.81531 11.15281 9.984672 12.07055 18.3575 22.78047 25.79031 22.76766 19.51688 1.597734 -5.228375 -7.662078 -7.403953 -10.2197 -13.99453 -14.48422 -15.47328 -16.89172 -18.21047 -18.62734 -18.80078 -20.57047 -22.36047 -23.82547 -25.27156
25.49125 38.665 37.73297 39.04453 36.60906 31.13453 17.05719 10.13841 9.996968 10.00306 9.997046 9.987782 9.993298 9.999578 10.00825 15.47986 39.11078 47.87672 42.41813 45.24656 30.59453 20.19453 17.75234 32.36797 39.67734 34.03062 21.52328 10.89208 9.996953 10.00344 9.998125 9.998406 10.61537 17.76484 24.42578 19.53141 11.29878 3.947656 1.171055 1.089914 0.9545437 0.832814 0.8865797 0.8269485 1.022309 2.179328 4.304172 12.13525 8.335125 4.264766 2.467891 4.664531 10.8143 11.96498 2.816625 0.9909531 1.282016 -3.330641 -1.712594 -1.193063 -0.5745078 -0.5756172 -0.768086 -0.9613719 -1.576083 -2.48 -2.700156 -3.297609 -3.328422 -3.736063 -4.356531 -4.436672 -4.968094 -5.11425 -5.088937 -4.576282 -2.945656 -3.476641 -3.225859 -4.78025 -5.729297 -6.86775 -7.212203 -7.479828 -7.604875 -7.648922 -7.916891 -7.843531 -8.229266 -8.426453 -8.288796 -8.262218 -8.649032 -8.618609 -8.661187 -8.682921 -8.827812 -8.911766 -8.754656 -8.271937 -7.991187 -7.415219 -6.393734 -6.300266 -6.201813 -6.898109 -5.703813 -6.400891 -6.877672 -6.977094 -6.804047 -6.991047 -6.487937 -5.812125 -4.733844 -1.777625 3.303115 19.15562 8.748047 2.603297 2.0365 2.361453 3.964578 9.111032 10.16922 12.95844 18.32875 23.23625 22.11984 18.67547 14.27469 10.82172 9.98986 11.01656 16.12516 18.755 15.69188 17.32125 19.96734 8.451094 -3.841594 -8.107312 -9.704969 -10.53594 -12.50156 -14.44453 -15.91719 -17.83828 -18.39719 -19.88297 -20.3236 -21.95797 -24.05281 -24.91375 -26.12547
31.43734 44.92672 46.73687 41.63438 30.94109 17.48258 15.2607 17.18458 13.84033 10.69548 10.0258 9.998797 9.996265 9.998094 10.88567 19.5283 36.28656 52.30016 57.94313 48.54187 35.05859 37.31797 34.23516 37.30547 39.22422 28.14781 13.46625 9.97075 10.00391 9.991172 9.900312 9.983328 11.56459 22.67656 23.17734 13.99258 7.127219 2.074148 1.321648 1.551828 1.046536 0.9063141 0.8830875 0.8853859 1.094028 2.530188 8.432375 14.06822 14.2313 8.146328 2.630312 1.845078 12.00047 12.9135 3.573734 1.809406 2.376547 1.846078 -0.008492183 -2.553336 -0.6292266 -1.239844 -0.9662578 -0.847739 -0.9975907 -2.104531 -2.507109 -2.973312 -3.143969 -3.647625 -3.904812 -4.493469 -5.112312 -5.923156 -5.645109 -4.41675 -4.535422 -4.241562 -5.222031 -6.237281 -7.177656 -7.453765 -7.547828 -7.792562 -7.759562 -7.885641 -8.224313 -8.14525 -8.47911 -8.747391 -8.576531 -8.490109 -8.614656 -8.835563 -8.985953 -9.165578 -9.029062 -9.009266 -8.324422 -8.422328 -8.453688 -8.153812 -7.141312 -6.376828 -7.336734 -5.629672 -6.173656 -7.400578 -7.704235 -7.507719 -7.001469 -7.221594 -6.647937 -5.889547 -4.878844 -2.320281 3.153795 18.32516 8.70625 3.060094 4.42689 4.817078 6.652625 9.703844 10 10.12609 11.42531 13.99391 15.14484 17.61375 17.83406 15.34203 12.43502 9.983438 11.19359 12.4875 11.00906 16.49156 20.00484 11.68 -2.519562 -7.607078 -9.204735 -11.52938 -13.21406 -15.55859 -17.06641 -17.69922 -18.94485 -20.30484 -21.53844 -22.88844 -25.08719 -26.05281 -26.73328
32.19953 41.52734 48.66953 41.21859 21.52563 15.45305 24.11008 33.95063 29.54906 21.61156 11.43172 10.01309 10.04959 12.32658 16.6172 36.09766 49.73172 62.49172 70.69016 57.27219 56.13203 58.01156 54.11625 49.61953 33.14391 23.38031 13.61633 9.976735 10.08391 13.44355 18.47878 10.86947 14.18922 22.69766 14.93281 7.702343 2.582903 0.9377406 0.9290687 2.088106 7.583326 0.9207031 0.9358672 0.93135 1.063781 1.889453 9.732578 16.68031 18.16703 14.74847 5.040187 1.755719 11.28656 21.03216 10.84528 1.916687 2.040156 2.41325 1.202937 0.1449563 -8.68081 -4.31086 -2.024633 -0.3544922 -1.28338 -1.692906 -2.114547 -2.686781 -3.085797 -3.395859 -3.757578 -4.532656 -5.424016 -5.824359 -6.263891 -6.230625 -5.395656 -5.613125 -6.382187 -6.772172 -7.269172 -7.64011 -7.914094 -8.085875 -8.001016 -8.157578 -8.313203 -8.564688 -8.820765 -9.171828 -8.884251 -8.934203 -8.713828 -9.104813 -9.073563 -9.353656 -8.755094 -9.02425 -9.067532 -9.00536 -8.827922 -8.723203 -8.591484 -7.976781 -8.554468 -7.243937 -7.655813 -8.176484 -7.882844 -7.878078 -7.37675 -7.519094 -7.200718 -6.000719 -4.494547 -4.071485 10.29501 15.63469 9.896797 4.858422 5.222516 5.862016 7.251937 9.674141 9.98786 9.917048 10.01978 10.17684 11.79281 15.95969 19.19406 19.67922 18.39016 12.44744 10.00369 9.998844 10.97581 21.37234 24.93406 15.40844 3.695141 -5.738093 -7.420828 -11.86783 -15.99531 -16.23609 -16.89313 -17.59781 -19.59203 -20.90578 -22.43547 -23.77641 -25.10266 -27.10156 -27.52266
38.535 49.10016 49.57828 46.35359 35.4311 21.52828 32.77547 43.85223 42.8745 37.05133 24.06242 16.38594 16.31825 24.7979 18.73798 34.40549 54.78125 59.94094 83.09718 72.01141 58.92016 58.31375 58.55672 55.17015 33.19953 17.79703 16.23406 15.30819 13.12081 16.15156 19.94375 15.86703 15.37812 18.27312 12.795 9.809281 5.17675 2.001797 2.092734 7.902188 12.48498 2.013813 1.417172 1.278881 1.231609 1.54075 4.816688 8.34725 16.04984 17.66531 6.340781 6.592 16.42953 21.40906 9.012891 2.368797 2.469359 2.552063 1.936359 1.011745 -0.6942984 -6.397547 -2.73718 -0.5516906 -0.8381031 -1.542219 -2.069875 -2.152906 -2.774078 -2.735141 -3.011781 -2.729656 -5.145547 -5.629594 -6.246391 -6.330391 -6.434484 -6.654297 -6.643047 -7.070656 -7.398859 -7.718172 -7.767313 -8.285985 -8.121828 -8.3245 -8.451531 -8.716531 -9.014328 -9.107718 -8.962328 -9.208157 -8.982765 -9.335813 -9.328078 -9.512015 -9.545781 -9.521313 -9.452484 -9.564172 -9.2225 -9.311 -9.336234 -9.041281 -9.39411 -9.061251 -8.932032 -8.945422 -8.389016 -8.187235 -7.725359 -8.428657 -7.438922 -6.355 -4.364219 -2.635469 0.87505 10.02661 7.772234 0.5085753 -2.402631 -1.087869 2.438412 9.30575 8.402843 6.645516 8.281375 9.912141 10.93881 15.23641 18.97781 20.00594 20.0375 17.38672 10.98945 10.00695 10.77694 20.03859 27.95344 27.40969 13.11368 -1.643938 -5.433594 -11.31081 -14.93625 -16.09375 -17.07578 -18.29688 -19.91219 -21.775 -23.76797 -24.29094 -25.7025 -27.53469 -27.09016
37.35672 47.73453 42.54313 29.5 24.56219 14.51028 9.180515 8.681172 10.78734 10.24398 15.45648 20.34141 10.39203 9.644953 9.535188 17.94102 33.89141 52.45172 78.74469 86.99718 66.91141 47.39812 39.49109 35.44547 21.26411 11.77172 10.03109 10.27806 9.720297 11.71305 17.685 19.99719 19.94687 19.92016 19.78656 20.41781 17.8143 8.626172 10.075 11.63453 7.226141 1.712953 2.843797 2.468419 1.763703 2.123891 2.446859 5.61125 13.60266 16.63422 8.128203 11.50442 22.91875 22.86672 14.59445 4.81375 3.200047 3.1245 2.281062 1.906328 0.3227328 0.6145672 0.07220782 -1.602895 -1.046039 -1.421422 -1.260875 -1.430178 -2.009016 -2.331484 -2.906563 -3.023422 -5.361516 -5.612109 -6.104453 -6.376109 -6.464984 -6.619031 -6.787625 -7.090094 -7.301 -7.640078 -7.943438 -8.051828 -8.425453 -8.439468 -8.599 -8.935109 -8.766313 -9.038671 -9.204375 -9.528984 -9.299156 -9.512438 -9.672985 -9.743281 -10.00731 -9.90414 -9.941641 -9.618 -9.723 -9.913672 -9.620078 -9.548016 -9.860391 -9.832922 -9.654016 -9.346969 -9.066235 -8.63361 -7.815875 -7.590406 -7.009516 -4.885656 -3.356672 -2.518484 -0.2093297 7.488453 4.139266 -3.259572 -7.227953 -6.301031 -1.131031 5.691576 2.215875 1.901325 3.614606 7.941094 10.34983 14.315 18.66187 18.995 18.29406 17.23234 11.55578 10.00322 10.12464 12.16331 17.9048 28.43891 8.708508 -3.339242 -10.50303 -14.78891 -15.79203 -16.36641 -17.01875 -19.09 -20.84188 -22.13641 -23.90516 -25.5925 -26.74156 -28.32422 -27.09922
41.22391 48.12672 39.14234 25.31328 16.55906 10.05091 9.957859 10.00125 10 11.27719 19.25844 25.55469 9.932187 9.996437 9.997219 10.54484 22.77812 45.40797 74.77906 89.58625 71.66687 53.53094 35.45984 21.26969 14.76098 13.85133 9.975938 10.05814 13.32561 13.54508 17.01312 21.36594 20.05 20.00531 19.985 24.02172 22.74203 16.52188 18.84375 11.5957 1.464359 0.9882656 1.019031 1.024044 1.427609 3.629359 6.611312 6.574766 11.49719 12.81242 7.907578 13.20356 22.15234 23.75109 20.65109 3.893984 2.039813 2.271297 2.325906 2.236016 2.051983 0.7686297 0.1538914 -1.199473 -3.158484 -4.810406 -2.738141 -1.630725 -1.0835 -1.734531 -2.629141 -3.093578 -4.817219 -5.266172 -5.8925 -6.32236 -6.678266 -6.789187 -7.067156 -7.113062 -7.452172 -7.642265 -7.9175 -8.180422 -8.576156 -8.81525 -8.744703 -8.834719 -8.961079 -9.068516 -9.420156 -9.558594 -9.509703 -9.616813 -9.705484 -9.871094 -9.731219 -9.960859 -10.02727 -9.810891 -9.858156 -10.11594 -10.20086 -10.10013 -10.21797 -10.278 -10.21784 -10.09142 -9.410219 -9.149781 -8.417985 -7.295328 -5.98725 -4.028547 -2.580812 -1.129383 5.439811 8.322906 1.791687 -7.533322 -9.8885 -7.327828 -1.871578 -1.306955 -3.594359 -2.659378 -0.5125422 5.069523 10.3542 13.39625 17.67672 16.92 12.11219 11.6357 8.88414 8.796109 9.511203 11.25003 17.06183 28.13266 5.777031 -8.056234 -12.75366 -15.15063 -16.05141 -16.47344 -17.53203 -19.63297 -20.79109 -22.82859 -24.18328 -26.16984 -26.94938 -28.95313 -28.13828
47.57609 41.17125 28.13766 20.60828 18.12859 15.47916 9.972906 10.00875 10.22762 14.22687 21.98781 24.38703 10.66566 9.997469 10.00809 12.31344 30.86078 53.85094 75.14 78.49453 63.19625 51.85891 31.97297 23.59016 28.37047 19.52655 10.18608 10.91644 19.02297 23.05859 30.82891 31.71906 24.70875 19.91656 20.02281 26.59813 33.06734 29.54875 28.68391 18.82755 9.571034 1.026808 0.9274328 6.588191 8.541297 8.615985 14.80919 13.57492 16.77938 13.13298 12.4397 16.52806 16.0575 14.51922 10.34672 2.761578 2.067781 2.222828 2.246656 2.181266 2.034078 1.124195 0.475368 0.6797939 -0.3365812 -3.457594 -6.131 -4.536922 -2.641584 -1.640016 -2.000797 -2.215406 -4.107985 -5.113937 -5.708313 -6.737016 -6.646016 -6.92064 -7.262125 -7.525437 -7.716203 -7.98789 -8.208047 -8.488672 -8.837313 -8.98 -9.059921 -9.070734 -9.160797 -9.370063 -9.351547 -9.391594 -9.825937 -9.785547 -9.724062 -9.830047 -9.780625 -9.85914 -10.2675 -10.21908 -10.16281 -10.31406 -10.45 -10.46016 -10.41719 -10.58297 -10.53766 -10.58313 -9.753688 -9.516125 -8.302531 -6.860375 -5.283219 -3.502469 -1.413312 -0.1363986 1.484056 1.507692 -1.586855 -10.13122 -9.107735 -3.955875 -1.813469 -4.543894 -5.862656 -3.147875 -1.966164 8.778154 12.46109 14.835 16.64359 18.85266 12.12597 3.304812 2.778641 4.03275 7.880281 14.64203 23.30922 32.13797 4.996687 -9.777266 -14.25812 -16.36234 -16.47891 -16.85125 -17.94188 -20.25391 -21.55687 -23.41406 -25.19297 -27.04562 -28.52656 -28.48953 -27.79344
38.47406 25.33781 18.59711 10.93498 9.980844 9.964375 10.00523 10.00805 12.72813 19.28547 23.63547 26.29109 9.714313 9.993953 10.012 11.16047 27.84703 45.755 68.21203 82.76797 56.01578 42.30312 39.01094 41.99172 45.72859 28.75547 12.54609 9.959797 13.28797 22.82344 38.50703 41.23312 33.26594 23.72609 20.10812 28.84109 39.89938 35.35765 23.55688 18.06303 8.341549 0.8860859 0.933625 1.964322 9.271734 13.75094 20.71266 24.23609 22.93281 16.44172 17.38156 22.08172 16.97234 9.338156 7.136359 2.520828 1.727406 2.047469 2.026062 2.086141 2.001797 1.971328 1.35843 1.420608 1.605953 1.892672 1.494781 -4.305019 -5.154475 -1.431875 -1.983875 -2.057891 -2.70611 -4.455969 -5.277766 -6.281109 -6.448297 -6.949266 -7.453016 -7.742 -7.752313 -8.12125 -8.31086 -8.501828 -9.202015 -9.157672 -9.189235 -9.174313 -9.207125 -9.662359 -9.647985 -9.867937 -10.01298 -9.964 -9.688687 -9.7325 -9.689984 -9.785359 -10.03825 -10.62234 -10.14031 -10.38719 -10.48641 -10.59438 -10.86766 -10.85594 -10.72313 -10.53156 -9.867985 -9.448656 -7.502094 -5.670125 -4.975719 -3.6005 -2.890734 -2.537875 -2.632969 -5.160656 -6.481594 -11.26161 -9.569656 -3.200172 -3.217359 -6.242734 -8.370015 -5.490922 -1.823414 13.04848 22.98016 27.20765 29.02719 15.51814 -1.100944 -2.213711 -2.275531 -1.354109 -0.7089999 11.48689 25.6672 35.57481 0.6031093 -10.79461 -14.03875 -15.76422 -17.01781 -17.12766 -18.4925 -20.67156 -22.08156 -23.97844 -25.85734 -28.135 -29.17125 -29.3575 -21.85359
32.83062 19.07578 12.14727 12.52852 11.73591 9.983375 9.996813 10.00609 10.38652 14.33109 19.33031 16.68328 9.879609 9.99836 10.00633 10.01016 14.49422 39.04078 63.98453 88.76875 79.35593 64.25234 59.61172 59.53766 56.50859 37.60891 16.84719 10.16813 11.03844 21.35469 39.20781 48.07344 41.7289 29.28062 22.46344 32.16344 39.54625 32.61687 19.40672 8.080625 1.693328 1.071687 1.947469 3.303922 9.083673 12.35492 20.91547 29.78656 26.42734 19.655 22.74406 19.77281 10.81055 7.231266 2.736109 2.46275 1.634844 2.029281 1.624828 1.677219 2.004484 2.018328 1.708016 1.567266 1.391656 1.722922 2.187297 0.9984797 1.064505 -1.519625 -0.6738437 -2.898078 -2.534969 -3.222469 -4.121063 -5.787359 -6.437812 -6.925203 -7.433094 -7.910844 -7.965437 -8.292766 -8.581047 -8.708328 -9.238516 -9.30736 -9.087672 -9.278469 -9.533516 -9.511953 -9.659609 -10.3722 -9.815031 -9.724797 -9.521203 -9.807563 -10.03039 -10.14625 -10.17672 -11.03016 -10.66469 -10.53594 -10.76172 -10.93188 -11.13859 -11.25234 -11.07422 -10.64141 -9.590688 -8.201813 -6.463297 -5.876094 -3.39125 -4.526719 -4.232031 -5.001156 -7.779609 -9.96375 -12.23523 -12.995 -9.424516 -5.783828 -4.930625 -8.828297 -9.494875 -6.466547 -2.136976 4.471867 28.02563 29.49984 19.51242 1.394867 -1.020409 -3.745117 -2.931422 -3.689285 -1.913547 1.615483 13.91408 7.468089 -4.507469 -11.96281 -14.58703 -16.175 -17.12141 -18.37906 -19.60563 -21.255 -23.07766 -24.27094 -25.7975 -27.40469 -29.82297 -28.60688 -19.60438
33.60797 22.73047 18.59141 18.77906 17.09755 9.883923 9.995406 9.965077 13.25995 16.49203 19.74906 11.78172 9.997969 9.998281 10.00234 10.00469 13.095 34.73219 53.22672 83.32891 97.8325 87.35234 64.55937 51.96188 44.59766 33.49094 17.38156 10.25094 10.24891 15.67031 28.90469 38.96094 50.69687 42.47203 30.22515 35.99859 37.44625 26.35984 20.1575 12.14984 1.571828 1.239773 5.895047 12.6233 13.15922 12.86195 17.80531 30.15219 26.72891 23.0675 24.28938 13.61422 3.458125 4.390172 3.032516 2.361578 1.77125 1.908734 1.964828 1.709406 1.906438 2.170985 2.559891 1.670313 1.623141 1.668156 2.165344 1.602167 0.3998172 -2.277437 -2.416812 -2.696672 -3.577781 -3.130672 -3.753875 -5.290328 -6.310703 -6.767859 -7.2445 -7.873188 -8.043328 -8.347844 -8.636907 -8.769422 -9.318438 -9.499391 -9.384781 -9.627141 -9.494453 -9.564766 -9.716719 -10.56095 -10.01167 -9.856359 -9.841828 -9.8085 -10.10391 -10.2275 -10.25406 -10.89344 -11.185 -10.9875 -10.86172 -11.04828 -11.2675 -11.33281 -11.34219 -11.50781 -8.61475 -7.167672 -6.036578 -5.290156 -3.613125 -4.914375 -6.732188 -8.712406 -10.72563 -11.90609 -12.985 -11.52 -9.859828 -9.272344 -7.969922 -12.11705 -10.17394 -7.614516 -4.126 0.7641969 15.44656 19.03773 7.806172 -2.619969 -3.856 -4.962766 -1.587234 -3.501472 -0.9078203 -2.462095 1.158471 1.16889 -8.450281 -13.07141 -14.96906 -16.60703 -17.005 -19.06109 -20.12359 -21.71828 -23.49172 -25.18344 -26.63969 -27.48203 -29.75656 -24.28969 -12.62586
32.73422 27.89969 21.20281 15.40203 18.82908 10.00683 9.999484 9.958938 17.32125 19.72859 19.98953 11.52297 9.998625 9.999844 9.994141 9.99825 13.71484 38.7475 56.75375 80.1039 100.2455 95.17609 73.31828 45.59203 32.89234 20.40031 12.97289 13.90686 15.416 14.97641 19.32375 30.56437 50.68813 54.2911 41.64656 41.70391 45.23687 28.585 12.03617 3.378 0.9334406 2.543977 10.47347 22.46484 27.955 20.69703 24.33766 33.70453 30.85281 27.04344 23.44813 8.194656 2.891688 2.732875 2.218422 3.291813 2.547547 2.182937 1.977469 1.770578 2.154016 4.801094 3.896719 2.614734 1.981687 1.935203 2.031687 2.382266 0.8556563 -2.172422 -1.897812 -2.329219 -2.096219 -2.193125 -3.276484 -5.175453 -6.020375 -6.617672 -7.236578 -7.82864 -8.214687 -8.395422 -8.871203 -9.016516 -9.138813 -9.4425 -9.801875 -9.902266 -9.970735 -10.08898 -9.824453 -10.52508 -9.975203 -9.759969 -10.04802 -10.16111 -10.15159 -10.44922 -10.43281 -10.67047 -11.10516 -11.50891 -11.27531 -11.31875 -11.36156 -11.55562 -10.68156 -11.56081 -10.68145 -7.487782 -6.005594 -5.085141 -4.672281 -6.327531 -8.818391 -10.37091 -11.79203 -13.17672 -12.63219 -10.2747 -10.30991 -9.437938 -9.844891 -13.24019 -11.24677 -8.881125 -6.641282 -2.732986 0.9363196 1.344219 -3.6875 -5.041781 -0.7813266 -0.9248969 -5.2536 -2.519781 -1.625109 -6.739156 -2.954762 -0.05191015 -9.245641 -13.82234 -15.63875 -17.50875 -18.02266 -20.08594 -21.29219 -21.89734 -23.76125 -25.81906 -27.99562 -28.24781 -28.51266 -27.02953 -23.47227
13.8945 18.71125 15.06359 10.42688 11.29403 9.968359 9.997188 10.00863 12.73261 22.79984 28.85922 16.25328 10.00584 9.99989 9.99989 9.996765 20.94062 44.5714 71.34797 93.3975 86.52516 72.09563 63.18 50.08875 36.855 24.50453 16.61234 19.68734 20.11938 19.64406 23.38234 34.53781 45.67891 60.26031 48.02438 48.77813 59.46047 41.66469 22.69281 9.388765 2.191141 2.186859 4.896 22.61264 38.55828 36.92953 35.59984 41.65453 32.83125 27.11859 13.31242 3.27861 3.095016 2.921844 3.164813 3.797016 4.2815 2.349313 1.932594 1.898547 8.719172 18.56781 8.715157 2.523266 1.98225 2.101406 2.453906 2.267672 -0.02723751 -2.022719 -2.091547 -2.529 -2.739844 -3.289125 -3.591625 -3.951078 -5.387688 -6.304859 -6.862047 -7.566312 -7.946032 -8.149953 -8.485812 -8.779813 -9.209297 -9.405657 -9.615579 -9.673249 -9.987016 -10.52797 -10.17031 -10.53816 -10.11094 -10.23828 -10.25234 -10.48234 -10.30875 -10.51016 -10.67891 -10.91781 -11.1325 -11.63062 -11.615 -11.40063 -12.22703 -12.0275 -11.67281 -11.84984 -11.89906 -8.909922 -5.067187 -3.796484 -5.732687 -7.606062 -9.649422 -9.887781 -12.35234 -13.91594 -12.91594 -12.82938 -11.25172 -11.03859 -11.23117 -12.40148 -12.50969 -10.37264 -8.196 -5.904953 -1.100958 -1.609305 -5.715234 -6.473719 -1.587781 -9.126124 -9.595656 -8.976672 -10.15878 -10.23734 -8.573516 -7.004906 -9.423172 -14.44688 -16.12187 -17.79516 -19.89016 -20.34062 -21.56562 -22.81703 -24.34625 -26.82781 -27.96297 -30.60422 -27.1175 -17.89063 -20.18594
9.924984 11.09108 12.01295 10.21031 9.999532 9.996328 9.996406 9.997141 11.04672 24.66047 36.43391 22.66547 10.04406 9.999828 10.00124 9.980031 15.73078 37.84797 64.2175 95.36109 86.88266 61.85641 47.21969 40.36172 30.94688 21.55437 21.71219 25.91219 22.50547 20.20781 29.41797 43.36344 50.88125 71.28922 65.91813 61.46531 56.98578 42.67422 23.72266 9.075672 10.84023 11.06281 5.566172 11.09442 25.11078 41.00281 53.70985 44.13828 28.50438 18.08453 7.513828 2.957187 2.972359 3.026609 3.211609 3.572203 3.789516 3.803359 3.139297 2.556719 16.29984 27.57109 17.2582 3.083641 2.033781 2.193828 2.389141 2.100844 -0.9604531 -2.580734 -2.782531 -2.993078 -3.100766 -3.243031 -3.565453 -4.101719 -4.356531 -4.716063 -5.348328 -6.012375 -6.76686 -6.466063 -5.923484 -8.244609 -9.351313 -9.567985 -9.589156 -9.594969 -9.491906 -10.11573 -10.31722 -10.84962 -10.71625 -10.42359 -10.29391 -10.38406 -10.59188 -10.77891 -10.82266 -11.07859 -11.30078 -11.59766 -11.85156 -11.98156 -11.73906 -12.08625 -12.28312 -12.6775 -12.61562 -10.09447 -6.021969 -5.207672 -6.492594 -7.55725 -9.865531 -8.730938 -12.25578 -13.6575 -12.65203 -11.56031 -12.44844 -12.56031 -10.87086 -14.19742 -14.38406 -12.19766 -9.793281 -7.6955 -2.717136 -2.458758 -6.120265 -3.536423 -1.717453 -11.67391 -11.76922 -11.84813 -12.29156 -12.90047 -11.72156 -10.36648 -13.075 -15.76594 -16.72531 -17.59266 -19.95422 -21.02484 -22.23734 -23.97016 -25.88016 -27.4625 -27.50234 -30.00391 -22.78672 -14.58609 -18.12891
9.593578 9.99225 9.989515 10.00953 10.02664 9.870234 10.00156 10.03136 16.67195 22.24172 26.14406 15.36938 9.999531 9.99639 9.995844 9.995812 12.48953 31.35578 49.84641 79.64703 97.97485 84.21031 66.35875 52.54453 39.61094 25.695 27.80203 36.89109 28.20625 20.14922 26.11328 40.8025 54.88438 74.28219 82.31734 67.44422 42.45375 25.41406 16.73594 13.25614 22.59469 20.37266 9.42211 18.17223 26.63891 36.56688 53.47313 40.94453 19.33641 8.333516 2.750703 2.797969 2.990172 2.91325 3.066219 3.28775 5.512562 5.543594 6.381485 5.889922 19.57016 34.7211 32.28672 16.19513 2.129563 2.081172 1.795625 1.621938 -1.253031 -2.513547 -2.676281 -2.632531 -2.895297 -3.335844 -3.815687 -4.098906 -3.146062 -3.854734 -4.501062 -4.647766 -4.854281 -3.45797 -2.991173 -7.64 -9.003032 -9.291735 -9.329703 -9.665672 -9.713 -9.675891 -9.015656 -10.22791 -10.85063 -10.91578 -10.54 -10.49109 -10.76609 -11.01328 -10.90078 -11.18328 -11.16094 -11.47031 -11.74375 -12.55656 -11.57391 -10.84953 -12.42297 -13.03375 -13.00781 -10.85783 -8.156032 -7.190875 -7.903687 -8.596625 -10.21233 -9.347265 -12.32375 -14.14969 -13.59344 -15.3275 -13.52109 -14.13453 -14.70094 -15.16344 -16.22391 -14.05469 -11.46398 -8.858781 -1.888855 0.4921016 -3.345578 -2.449705 -5.24825 -10.51758 -11.71836 -13.49422 -13.64781 -13.88875 -13.90125 -12.66484 -13.87422 -16.87453 -17.75969 -18.9075 -20.30031 -22.01469 -23.32094 -24.49906 -26.79656 -28.24922 -28.36328 -28.41406 -15.38133 -9.063828 -10.36406
16.80759 10.9247 9.512047 14.21758 18.8717 14.8508 10.00861 10.01623 17.82906 18.95172 13.43398 10.30302 9.999454 9.996469 9.994437 9.871187 14.88816 28.85406 40.42672 57.28031 90.23656 99.20047 85.39265 61.40656 40.71735 35.83703 36.83859 44.68562 35.19609 21.17453 20.36437 27.45984 41.18468 56.55281 78.08797 73.49828 40.74391 35.22781 27.48719 26.33219 32.22375 23.62969 12.105 28.76162 47.32187 51.09563 50.58391 35.99438 25.01703 10.11588 2.547984 2.67375 3.191766 2.856078 2.986 5.376156 7.479047 8.753563 16.16989 15.08316 22.39641 39.8975 40.69594 16.86312 3.221266 1.737953 1.408141 1.209631 -1.098467 -2.466031 -2.463609 -2.469031 -2.9105 -3.449984 -4.043735 -4.841266 -4.033797 -2.047984 -2.645719 -1.877906 -2.846555 0.17657 -2.467766 -7.327578 -9.218172 -9.359266 -9.24989 -9.103437 -9.90939 -9.985547 -9.950469 -10.61987 -10.41234 -11.27734 -11.275 -11.35906 -11.56531 -11.47797 -10.97016 -10.9825 -11.41844 -11.55922 -11.83734 -11.96406 -12.37556 -11.15234 -12.26516 -12.97656 -12.86344 -11.36647 -8.327797 -7.983406 -8.766453 -9.811016 -11.31445 -10.83027 -12.57594 -14.72203 -15.07516 -15.65328 -13.42406 -13.18328 -13.19266 -15.80375 -16.56359 -12.74922 -11.98672 -10.21183 -4.423434 0.7245781 0.4383906 -2.283328 -7.916078 -12.41608 -14.29342 -14.80078 -14.95313 -15.20594 -15.7825 -15.42609 -15.65891 -17.555 -19.29719 -20.64922 -21.81437 -23.24453 -24.60312 -25.55109 -28.105 -30.44141 -27.39141 -23.1375 -24.24058 -11.1993 -20.78
20.91203 14.17328 16.91781 19.93844 19.19272 13.62706 10.00191 10.04537 20.12719 24.00141 13.2293 10.00589 10.00858 10.00466 10.18044 16.53656 32.7439 39.18031 42.59125 45.59406 72.5014 98.74484 85.76125 56.94266 44.04969 45.62265 51.02344 48.14312 34.34266 28.59594 32.34672 39.05875 41.24297 48.05172 72.70563 79.96953 68.57687 56.49125 45.92015 41.40594 31.20422 18.52188 15.44766 28.42047 55.09797 50.05828 31.77 17.21272 12.78509 5.754609 2.352969 3.022484 9.999219 2.241203 3.553547 9.037125 12.45563 12.43812 19.18344 22.3425 28.4975 42.86219 38.80047 10.41091 3.411922 2.220797 1.063234 2.030878 -0.5046375 -2.458281 -2.110156 -2.254203 -2.782234 -3.473641 -4.19075 -4.75725 -4.259469 -4.052609 -2.527062 -4.071828 -4.561453 -2.777688 -3.100031 -5.728389 -5.754984 -8.931265 -8.879 -9.354781 -9.287063 -9.701906 -9.931281 -10.19361 -10.48766 -10.70062 -10.82016 -10.69094 -11.35984 -11.56484 -11.38594 -11.20594 -11.49047 -11.71281 -11.92297 -12.19312 -12.76344 -12.79 -13.03687 -13.01844 -12.96031 -11.96453 -10.37133 -8.586923 -10.34358 -11.63341 -12.63262 -13.72 -14.03281 -14.65781 -15.22891 -16.22844 -14.05844 -14.24109 -15.39969 -15.21328 -15.43578 -13.94672 -13.32875 -10.81031 -7.304235 -4.444531 -8.042422 -9.807719 -12.41123 -12.88492 -15.64047 -15.21875 -16.00391 -16.54719 -17.76594 -17.96047 -17.345 -18.79234 -20.47437 -20.65094 -22.92703 -24.20938 -25.73359 -26.99438 -28.66172 -29.96672 -28.35109 -21.14609 -15.39055 -7.242781 -11.1588
24.89453 18.21484 25.33672 26.90844 16.95844 11.36484 9.993828 9.755328 21.60266 22.26188 13.30172 10.00034 9.994781 9.993594 11.87078 27.70047 45.54203 57.44969 63.49812 72.44609 80.80734 96.76266 93.03297 79.31219 67.08656 59.95406 57.71265 45.26094 40.02328 40.07438 42.32281 55.28234 53.27562 51.24984 70.72953 76.00594 72.33765 56.10484 42.81734 28.18547 18.36141 14.71875 21.33438 42.12391 61.76828 47.83984 26.70547 14.68062 8.134844 3.787609 2.295578 10.94269 14.94727 2.269109 2.813719 6.873844 13.47219 21.26797 23.33984 25.53391 31.79922 45.44375 40.26484 14.24508 2.643453 2.512578 1.846328 2.238625 0.977125 -2.204094 -1.807297 -1.881984 -2.515156 -3.193203 -3.820703 -3.835141 -3.484344 -5.161109 -5.993062 -5.505516 -6.422578 -6.476672 -5.294875 -1.732742 -2.175934 -6.259547 -8.463843 -9.020656 -9.376297 -9.637875 -9.982328 -10.06337 -10.99734 -10.8225 -10.80453 -10.85375 -11.25906 -11.55734 -11.94016 -11.72719 -11.59172 -11.79734 -12.06922 -12.31656 -12.59469 -13.04594 -13.09437 -13.27375 -13.17313 -13.30781 -12.11641 -11.13344 -11.705 -11.53469 -11.32141 -13.63875 -14.88859 -16.01953 -16.62031 -17.275 -16.97031 -16.41531 -16.52547 -17.57969 -17.30219 -14.38078 -13.98703 -11.63984 -9.176016 -7.795469 -10.13062 -11.86609 -11.62591 -9.998984 -14.95562 -15.30031 -16.41422 -16.94344 -18.31531 -19.52469 -19.10953 -19.98562 -21.65047 -22.70734 -23.57141 -24.81187 -26.95485 -27.83031 -28.30484 -27.70609 -24.35062 -22.30719 -22.54264 -12.8057 -21.3175
30.74609 25.97422 29.48281 28.55922 18.93937 12.85844 10.00773 11.1472 19.40891 14.03492 10.43062 9.985734 9.994157 9.995703 11.51156 27.26062 43.6725 49.39656 60.5075 77.80156 80.56906 76.00719 73.1486 87.10672 74.41937 54.87437 45.80484 40.43281 40.07719 40.00797 41.15875 61.54797 74.2264 77.26078 81.32641 70.45672 52.58609 36.80484 26.66187 24.80734 29.21531 25.40078 21.00859 40.90516 63.97062 64.29375 47.16719 32.11547 19.8757 7.390891 3.943 15.58222 19.31726 4.302391 2.409891 6.563531 16.19484 27.17188 40.86485 38.51594 36.20547 48.54219 43.625 18.46031 1.02568 3.056094 2.184375 2.188391 1.727555 -1.321867 -1.687375 -1.579875 -2.198984 -2.625234 -3.198828 -3.092016 -3.961141 -5.678062 -6.76861 -6.315125 -5.164531 -6.603625 -5.014406 -3.211422 -2.844528 -5.948141 -8.648922 -9.015813 -9.119657 -9.620218 -9.843968 -10.30541 -10.71922 -11.33578 -11.41156 -11.26156 -11.35984 -11.7175 -11.8425 -12.13188 -11.92844 -11.79969 -12.00906 -12.50406 -12.72516 -13.09984 -13.14437 -13.49094 -12.79344 -12.69297 -11.97031 -10.31539 -11.4625 -8.901172 -11.7832 -13.70359 -15.17219 -16.81797 -16.62969 -17.36797 -18.27109 -18.14891 -18.06766 -17.37109 -16.35453 -14.855 -14.32453 -13.25703 -13.95469 -13.83453 -13.16969 -13.15125 -10.06528 -12.99156 -14.42047 -16.49641 -17.30797 -18.40594 -19.42234 -19.78406 -19.84078 -21.06219 -22.55906 -23.66203 -24.09797 -25.66656 -27.56734 -28.37406 -28.64156 -27.78031 -22.65531 -18.46734 -16.67381 -10.67562 -23.85578
46.275 36.6814 30.11188 22.89031 11.65167 10.38148 10.17313 11.17578 19.53203 15.17773 16.77469 11.03427 9.998719 9.992063 10.06222 11.22287 18.63578 22.84344 41.62781 50.72515 49.81641 44.66078 48.8975 72.07281 86.53844 66.8689 53.10328 47.83594 46.70515 40.0375 40.35313 59.36281 84.84422 98.37437 92.1861 70.48703 48.21594 32.87594 32.00094 39.14109 48.79906 33.5875 23.8875 36.46078 55.46625 62.05203 47.62781 33.68906 13.72091 3.866453 7.576219 22.49317 18.67822 3.951609 6.440672 12.70059 23.93219 37.49875 53.71594 51.84734 47.12266 50.52344 39.14766 10.58436 0.9796172 3.261375 2.205672 2.082891 2.099867 0.2238359 -1.449719 -1.313094 -1.869266 -2.26739 -2.524734 -2.675313 -3.547641 -4.400234 -5.327188 -5.374422 -4.287531 -5.2055 -4.74964 -4.824281 -6.812156 -7.285344 -9.263391 -8.875734 -10.14081 -9.489906 -10.19608 -10.80016 -10.73063 -11.56563 -11.37031 -11.67813 -12.19047 -12.47297 -11.97453 -11.99016 -12.43828 -11.92109 -11.85078 -12.36844 -12.72937 -12.92875 -13.00531 -13.41953 -13.63906 -13.44172 -10.19609 -10.20383 -10.62495 -10.73406 -7.406953 -15.05061 -15.24125 -16.43734 -17.50141 -17.54422 -17.74203 -17.87672 -17.33453 -17.81844 -16.06656 -16.26953 -15.89219 -14.94 -14.46766 -15.71703 -12.85844 -10.67813 -13.17973 -12.55594 -14.75359 -16.59109 -18.80437 -18.89594 -20.235 -20.33547 -20.46515 -21.65125 -23.42547 -24.39219 -25.32266 -27.05781 -26.86563 -24.28234 -26.92547 -23.43219 -21.93297 -16.34109 -23.8315 -11.07594 -26.69031
57.54781 42.13609 25.8025 13.83094 12.34031 18.72797 15.41781 10.28845 17.16234 19.97125 17.44703 10.73637 9.994359 10.03356 10.46544 10.55641 9.987532 11.3955 21.23902 26.38465 22.94655 32.82703 48.10984 59.28735 79.50125 86.18094 76.66531 70.46687 64.48828 46.29156 40.09703 44.9236 66.81078 85.15015 96.4275 75.87922 52.69828 42.46297 51.57625 57.8875 58.7911 31.71766 27.77234 51.26781 67.47391 50.03062 26.63063 14.05312 6.369328 10.79953 19.15641 31.36656 17.63194 4.061781 11.03334 23.72828 28.55922 49.32453 69.16047 60.29234 44.75391 47.90469 39.30469 17.04422 1.354984 3.120781 3.281484 2.087125 1.950531 1.020402 -1.416239 -1.591859 -1.283209 -1.472344 -1.666062 -1.388377 -0.08594374 1.293252 -2.710663 -4.140578 -4.650953 -5.252484 -5.83725 -6.619734 -7.366359 -8.486688 -9.033954 -9.221001 -9.777719 -9.816047 -9.811125 -10.36397 -11.16672 -11.17191 -11.03941 -12.67366 -12.0875 -12.43563 -12.02391 -12.31031 -13.12844 -12.50578 -12.61125 -12.78203 -12.57938 -11.61875 -13.29531 -13.73172 -13.04516 -11.69031 -11.41141 -13.44 -14.22984 -15.23547 -12.67609 -14.72203 -15.77406 -16.76344 -17.01734 -16.90875 -17.78141 -18.32781 -17.68641 -17.23203 -15.43359 -15.72828 -14.57047 -13.68062 -15.16859 -15.40906 -15.52625 -16.48812 -16.44984 -14.72703 -14.58563 -17.03516 -19.47437 -19.18312 -19.28078 -20.87203 -21.44266 -22.31484 -23.75391 -25.39234 -26.645 -27.02063 -26.76438 -21.92125 -18.37977 -9.794734 -8.651062 -5.387516 -8.598282 -5.737266 -13.73688
50.53422 44.46484 28.49063 15.85906 24.10406 25.81516 21.56984 10.9817 12.29781 19.91734 13.49781 9.983266 10.00297 10.26937 14.60922 16.47203 12.01953 9.997656 9.915703 9.749469 10.68611 19.81719 32.09094 41.67735 60.31141 81.93031 85.75687 84.65141 74.64562 55.74828 48.76313 43.75562 47.36609 59.20844 83.94907 86.30797 70.39812 64.43031 63.07797 58.13906 49.09438 31.00859 36.49922 63.14906 75.84266 59.76016 39.48516 20.59359 7.953375 16.34328 33.63 41.48906 22.02453 10.13167 9.039484 23.55062 43.63562 60.74781 75.00015 55.47344 36.10453 41.15656 41.33078 21.07078 1.436273 1.804773 3.617312 3.189047 2.044656 2.141656 0.3224375 -1.446766 -1.299325 -1.004848 -1.029364 -0.256525 7.797875 6.405219 -1.801812 -4.560422 -5.130828 -6.1515 -6.603531 -6.816141 -7.141203 -8.274547 -8.884781 -9.679235 -9.602688 -10.32086 -10.50133 -10.53773 -11.06703 -10.83828 -9.803906 -11.93641 -11.945 -12.25328 -12.47594 -12.47844 -12.67188 -12.74031 -12.94422 -13.04625 -13.31844 -13.42141 -13.93 -14.12453 -13.32141 -14.06359 -14.86438 -14.73719 -14.53953 -15.5575 -15.91141 -15.66797 -16.98266 -17.58344 -17.56469 -17.3475 -17.75328 -18.78312 -18.80187 -18.69656 -14.96594 -16.41109 -16.90016 -14.31781 -16.11266 -15.35281 -16.95984 -17.06844 -15.78656 -16.48812 -15.63422 -18.16094 -19.63641 -19.63344 -19.61 -21.29094 -21.74578 -22.56406 -24.56641 -26.21609 -27.14578 -27.94453 -25.05703 -21.83016 -22.97094 -17.74 -17.03297 -11.70172 -18.69922 -11.53516 -16.51484
47.65141 36.51719 23.24609 22.61141 30.74937 29.99406 25.3425 11.81123 14.49391 17.36898 11.27758 10.03014 10.00109 10.14672 14.87953 19.44391 17.95328 12.3018 9.906953 10.00509 10.00408 11.67344 23.37687 39.09297 49.18016 68.08031 68.22719 62.55219 76.12766 81.09672 77.27563 61.53297 58.45984 57.89047 67.54516 88.23766 95.52937 76.11547 56.9975 40.40234 35.49125 31.18359 51.96328 70.89125 60.71219 47.57109 34.41328 19.06 9.70314 18.00344 37.28234 48.35078 27.88547 14.40441 14.238 18.03578 29.42625 53.73844 71.36188 50.96719 29.92719 30.43391 35.55344 20.84266 3.204633 1.472117 2.714734 4.04389 3.069734 2.138453 1.902828 0.8635468 -0.05833283 -0.1451063 0.07104219 -0.3811266 15.13217 0.5024844 -4.165875 -5.66925 -5.821531 -6.867359 -7.126031 -7.265828 -7.192062 -7.708687 -8.571266 -9.204156 -9.487609 -10.11148 -10.55719 -10.68625 -11.38188 -11.91859 -11.94516 -12.35406 -11.83328 -12.15719 -12.15719 -12.64484 -12.95078 -13.08172 -12.98094 -13.12203 -13.33797 -13.65188 -14.00422 -14.29328 -14.23312 -14.63469 -14.87297 -15.39969 -15.54891 -16.02547 -15.59813 -15.91953 -16.81 -17.39828 -17.37172 -18.10844 -18.20719 -19.00891 -19.25031 -18.44578 -17.13547 -17.92281 -18.56812 -16.49125 -14.72984 -14.87938 -15.52156 -15.84812 -16.435 -18.53891 -16.84516 -18.06172 -18.96531 -18.84125 -19.92328 -21.50266 -22.02 -23.31641 -25.09219 -26.72938 -28.08484 -28.51016 -26.97812 -22.10516 -16.92484 -16.72437 -15.33375 -10.70711 -18.08391 -9.674219 -11.73828
34.52969 24.75063 25.16156 28.37422 30.02969 29.46328 22.07969 10.95563 17.93078 18.11736 10.09158 10.03656 10.00066 10.01625 10.52016 11.50297 19.23937 19.41742 16.62055 10.70438 9.989968 12.43828 24.07422 38.71218 50.08984 54.48672 46.81094 46.02266 70.93484 83.12047 89.63922 87.54781 85.81203 77.88875 70.97859 79.85374 107.2638 85.14188 57.03094 50.80187 46.97594 38.41687 61.28563 78.86063 57.40734 38.07391 22.59422 16.81 11.80391 29.07453 47.93391 49.86484 27.91047 16.79938 26.20484 33.26094 40.02687 50.43281 54.85938 36.54375 26.13656 19.64797 25.40266 14.13406 3.447609 1.789984 1.543031 3.155844 3.614609 2.839531 2.101016 2.012766 1.68088 2.274636 5.009987 13.97719 17.05919 -0.1143141 -4.108142 -5.415078 -6.117016 -7.279859 -7.669 -7.569797 -7.067765 -7.534281 -8.434984 -9.278234 -9.760282 -9.891421 -10.57064 -10.53312 -11.20234 -11.81891 -11.93687 -11.79578 -11.92844 -12.79156 -12.29156 -13.01734 -12.60453 -13.425 -13.90703 -13.50703 -13.70438 -13.69922 -14.27266 -14.00609 -14.41859 -14.50063 -15.07172 -15.40781 -15.93563 -16.09906 -16.42406 -13.56156 -16.20547 -17.07422 -17.08594 -19.23969 -19.48438 -19.14406 -19.06672 -18.10172 -16.47016 -17.90641 -19.33922 -16.96781 -19.36984 -18.05641 -14.87438 -16.56344 -17.97844 -17.77203 -16.75719 -17.78312 -18.13047 -18.99734 -20.26766 -21.77078 -22.26641 -23.72641 -25.74359 -26.92453 -28.64516 -29.43937 -27.06437 -19.65094 -22.1797 -13.5068 -18.09656 -18.24327 -26.416 -15.72781 -22.66578
30.00703 30.18844 29.93687 29.99609 30.04891 28.82187 17.84141 14.25313 24.45375 28.03875 21.53719 11.88727 10.0073 9.999844 9.999687 9.999937 10.86297 17.86875 20.01563 11.48594 10.00741 10.82297 19.42734 34.05062 35.35609 29.55344 30.15891 36.83344 50.51766 58.89453 79.80859 87.89359 88.29969 90.03265 95.74516 101.6364 124.3563 105.7597 77.81125 69.68015 50.33641 41.75219 63.92719 89.85234 72.86328 45.29485 27.12687 20.57422 18.49281 31.22359 50.88609 44.64047 25.20078 32.9864 46.46218 58.37437 61.64703 51.66359 34.41281 20.63094 14.66478 13.47616 18.49311 14.7305 4.395531 1.583672 1.334687 1.3785 3.047344 4.747906 4.905485 7.660578 13.70141 12.09203 14.51313 13.93844 10.24322 -0.1322125 -4.184806 -5.403906 -6.278219 -7.169343 -8.259656 -7.454078 -6.944625 -7.610468 -8.589922 -9.175656 -9.863672 -10.16156 -10.41078 -11.35234 -11.04828 -11.1825 -12.39344 -12.69156 -12.33359 -12.59047 -12.52563 -12.83469 -13.405 -13.24609 -13.27891 -13.47937 -14.19297 -13.81391 -13.87719 -14.47359 -14.70813 -15.05547 -15.65625 -15.50969 -16.1075 -16.00984 -15.90203 -16.71266 -17.36047 -18.14156 -18.01656 -19.05594 -17.53281 -17.61906 -18.28234 -17.96844 -17.96922 -18.90484 -19.30719 -19.50656 -20.59609 -21.29781 -18.28766 -15.02953 -17.88234 -17.97016 -17.11547 -17.94547 -18.61609 -20.18016 -20.61297 -21.88 -22.94031 -24.30219 -25.95766 -27.42438 -28.55625 -27.81609 -19.85594 -10.27698 -10.8187 -15.54594 -19.46625 -24.45313 -28.53203 -23.43953 -19.67391
38.81953 31.66875 30.05078 29.82906 29.43281 25.44078 17.54703 27.01625 32.8525 26.83359 17.5418 10.26845 10.03064 9.99875 10.00766 9.998625 10.62422 16.715 20.21656 15.30578 9.985844 10.00767 10.89166 18.80589 18.06136 24.98844 30.90094 33.46359 39.49078 48.85672 63.93875 72.89265 69.54703 83.56828 108.0948 122.7578 133.0578 126.4359 108.6703 89.66484 68.88906 59.10891 71.04875 98.38234 78.55469 47.22875 34.31703 26.79953 20.02969 37.38406 55.63172 44.90781 33.87594 55.12781 62.69422 56.04797 48.06875 36.12531 22.53703 13.89703 11.65375 7.7745 7.188562 5.013765 3.235453 2.042297 1.614328 1.269812 3.848906 12.76078 13.14086 16.60039 23.72812 21.33 21.28859 16.36984 7.243165 0.2444375 -3.148188 -5.277281 -6.094375 -7.044422 -7.92325 -6.946516 -6.509891 -7.324047 -8.493969 -9.261907 -9.625984 -10.34672 -10.65375 -11.35437 -11.52187 -11.36266 -12.14156 -12.60734 -13.01203 -13.03125 -13.20469 -13.1025 -13.45844 -13.355 -13.55188 -13.81609 -13.62656 -13.92656 -13.98906 -14.92094 -15.30578 -15.145 -14.79813 -15.50547 -16.33281 -15.88375 -16.75641 -16.51609 -17.32688 -18.18531 -18.37828 -18.61016 -16.10719 -16.00531 -15.49047 -17.84719 -18.53891 -19.69344 -19.46922 -19.70156 -20.82016 -21.96734 -18.85094 -16.47047 -17.34484 -16.80078 -17.78203 -17.89656 -19.04891 -21.00641 -21.63375 -21.88469 -23.76234 -24.7675 -27.06437 -27.84094 -28.58531 -28.39828 -19.48891 -12.57484 -21.08891 -18.99766 -22.43828 -24.34734 -31.35578 -24.79453 -25.475
44.16328 33.31562 29.475 24.83531 23.77734 21.15406 25.87359 36.99203 43.49703 29.83047 19.76914 16.08056 15.4008 9.830391 10.01234 9.994797 10.24789 14.85953 22.65797 26.45891 14.30522 9.98775 10.00533 9.952765 10.30191 15.62477 24.58844 32.98625 39.47281 52.23016 63.14031 62.79266 47.53453 69.33156 97.16281 102.7953 104.8641 114.4437 117.5531 107.4656 98.81718 92.7886 96.59953 110.8089 81.03672 50.59672 39.28266 27.04172 25.26875 37.57703 60.03563 54.16094 56.84156 71.94891 59.77703 40.60188 31.42813 25.15344 19.80344 23.1525 25.27672 18.14762 10.18786 3.709391 2.120375 1.668469 1.477609 1.440828 4.786797 16.39203 22.1975 25.13938 24.74219 22.84406 22.59172 18.8675 8.792775 0.7795625 -3.151734 -4.911109 -5.282656 -5.130359 -5.941219 -5.173469 -6.120125 -7.41686 -8.659828 -8.977531 -9.822547 -10.09477 -10.41859 -11.53953 -11.47812 -11.65953 -12.61031 -12.49953 -12.96281 -13.18359 -13.37656 -13.31969 -13.38969 -13.59484 -13.89328 -13.99734 -13.96016 -13.93047 -14.27422 -14.27719 -14.61906 -15.03719 -15.28406 -15.88906 -16.13516 -15.64 -16.4775 -17.53094 -17.20266 -18.18531 -17.99547 -17.34844 -16.10641 -15.835 -15.01547 -16.98156 -18.73656 -18.76453 -18.63406 -17.33125 -20.01234 -21.01266 -20.02125 -16.34469 -16.33 -16.70703 -18.46953 -19.36766 -19.68641 -20.76969 -22.46344 -22.19953 -23.91313 -24.79719 -27.01984 -28.27766 -29.20016 -24.08656 -16.53656 -19.49141 -25.31313 -27.63516 -33.05625 -28.09266 -28.99562 -25.92266 -27.30234
37.12641 34.31422 34.80484 25.77625 26.24687 23.12359 31.07203 46.74094 49.29656 41.4711 27.26875 16.19312 14.05742 9.993516 10.00172 9.990203 10.49195 16.45969 23.61672 29.62625 21.72894 10.95898 15.19555 10.75959 9.995782 10.2308 13.01056 28.33359 30.81453 32.45734 34.41906 37.98922 34.04406 62.00172 79.78297 69.37375 74.07938 89.39297 97.36015 85.46625 90.73141 110.3047 128.8906 130.6266 96.45203 70.23875 48.44188 32.03047 37.31953 37.72187 63.33437 76.69937 82.40328 81.45688 67.52953 54.21875 45.06922 34.99562 29.35109 37.25531 41.78765 32.60234 15.30367 2.702734 1.475766 1.232844 1.327688 1.821656 3.595203 9.958203 19.19891 29.34266 25.19062 17.01813 12.95484 9.736703 5.696828 2.722697 -2.281131 -3.932094 -3.723187 -3.772156 -3.629344 -0.3635656 -4.715593 -7.519984 -8.357094 -9.030297 -10.12698 -10.45242 -10.56828 -11.07766 -11.68266 -12.27984 -12.39859 -12.69734 -13.28406 -13.49484 -13.13859 -13.25109 -14.42484 -13.94266 -13.74422 -13.90172 -13.73141 -14.19531 -14.26016 -14.45641 -14.81359 -15.34344 -15.02391 -15.53719 -16.71 -15.92719 -16.2225 -17.66266 -16.59188 -18.32531 -18.64875 -18.47109 -17.54469 -18.63391 -15.6925 -16.40953 -16.45234 -16.27672 -16.95484 -15.2 -13.78453 -18.30469 -18.88594 -19.10156 -20.42906 -20.26688 -20.88641 -21.88844 -19.85813 -20.69719 -21.79719 -22.16063 -23.49656 -25.0475 -26.67719 -29.88844 -28.83781 -24.67328 -24.90375 -28.20906 -28.38797 -28.26891 -31.19625 -26.43047 -29.79469 -26.93328 -28.56297
47.15844 49.14 42.23453 32.56266 35.33719 28.41687 35.37859 47.78516 41.64875 34.77547 30.09891 21.88125 11.09422 10.01852 10.00055 9.9925 9.99575 11.52063 18.36922 25.39063 28.02516 15.48266 18.46391 20.45109 10.01558 10.14711 17.03625 29.97688 32.31781 31.40688 31.01703 31.19203 31.46562 48.01359 52.73078 58.86688 72.81734 92.79656 91.57468 67.43453 64.65172 91.65781 120.1172 142.9172 126.2797 99.53875 70.89031 52.54937 55.28016 53.81781 72.29359 76.40641 70.18578 55.64359 55.00453 70.00328 64.29453 50.30906 41.77312 40.33828 37.97828 28.86416 11.20244 2.06525 1.246602 1.132258 1.910109 2.620391 3.580422 10.72117 26.44922 38.11906 32.73344 21.47641 12.74109 6.698016 3.862875 2.690438 0.8210937 -2.293302 -2.702953 -2.632531 -2.661438 -2.721094 -5.72336 -7.535672 -8.519578 -9.496265 -9.693937 -10.50242 -11.305 -10.98812 -11.77391 -12.13656 -12.53891 -13.19859 -13.18547 -13.58 -13.36281 -13.77312 -13.57938 -13.3625 -14.1375 -14.35344 -14.17828 -14.96125 -15.27219 -14.86828 -14.52203 -15.45281 -15.46297 -16.06953 -15.42109 -16.32625 -17.09734 -16.70516 -18.71938 -17.885 -16.59359 -16.745 -16.78156 -18.50172 -17.46734 -16.08687 -15.88609 -16.64391 -17.89234 -15.17109 -14.30188 -16.08672 -17.74844 -20.81828 -22.08203 -22.74969 -21.90672 -20.80984 -21.63953 -22.06922 -22.33406 -22.85844 -24.28187 -25.88641 -27.07 -29.78609 -31.23109 -33.10812 -34.01203 -34.77734 -34.51609 -31.04969 -32.16063 -26.29672 -26.42188 -26.31031 -28.35797
53.09641 59.12797 49.44828 44.88562 47.95031 34.02656 35.24453 40.29922 38.60859 27.04344 20.92625 19.23984 14.58288 10.01008 10.00508 10.00125 9.996109 10.91828 16.55906 20.36109 27.83328 25.78141 27.09 20.54812 9.453218 8.896016 14.23594 33.08953 43.49875 41.64156 41.32594 43.83484 46.85891 49.33422 59.6475 78.63766 89.87984 92.36406 81.63828 57.98797 53.86297 73.77515 102.3697 129.5469 116.7953 100.1759 81.29625 76.8425 74.1386 71.13219 69.60641 51.92344 40.22313 31.70703 32.12812 46.06484 49.895 48.11312 39.97172 27.27547 18.13848 11.93241 6.315609 2.100531 2.187438 2.308234 6.263703 7.650703 4.900922 10.55203 23.80703 36.60094 37.98563 26.41688 18.77156 10.93445 4.032422 2.230953 1.98693 0.4242703 -0.7361753 -0.3889547 -0.6928125 -2.632894 -5.95025 -7.672406 -8.744204 -9.189375 -9.963203 -10.52234 -10.95594 -11.41875 -12.12594 -12.06625 -12.80141 -13.03094 -13.28938 -13.5875 -13.50156 -14.07609 -14.41453 -14.03734 -14.24359 -13.83234 -14.28625 -14.64734 -14.85672 -14.79734 -15.225 -15.44547 -15.48141 -16.28328 -15.45406 -16.30547 -16.77891 -16.7825 -17.66047 -17.64562 -17.30031 -16.77109 -16.62062 -18.26547 -18.32875 -17.15937 -17.04812 -18.71703 -18.29594 -16.9825 -17.12359 -17.35656 -17.41125 -18.39672 -19.99953 -20.86469 -20.19125 -19.91516 -21.45516 -23.02344 -23.17266 -23.18578 -24.71609 -25.82922 -27.87766 -30.51469 -30.05797 -29.88125 -31.90859 -35.59531 -32.125 -24.75875 -28.09 -25.92031 -29.34687 -26.78125 -29.19844
69.24484 68.42641 58.16078 56.86453 52.27063 36.73125 34.22656 32.24844 34.99531 25.77547 15.92391 13.00391 10.67116 10.02922 11.09844 10.13305 9.990015 10.78391 17.19734 20.06109 18.06688 27.41969 25.93531 15.75203 10.34884 5.966328 9.703125 24.82156 31.08938 34.67047 38.76109 42.73562 57.78547 71.96859 84.0475 92.22516 80.66813 71.31718 59.36875 44.87313 62.56062 79.19078 86.60172 107.3422 98.05547 73.23219 56.56343 59.45266 58.68625 57.6775 65.89781 53.93515 38.38328 28.52969 21.9 21.02734 21.29031 19.59188 16.44188 14.97937 9.042156 3.547328 5.662562 6.608656 8.583922 3.515734 10.64855 17.60844 9.113421 10.13602 19.50625 31.27281 37.84969 29.33328 22.90281 12.39609 3.921016 1.905016 2.208609 1.51057 2.738668 10.41378 12.72242 0.7963015 -5.176969 -7.524828 -8.679438 -9.409922 -10.08758 -10.42234 -10.82859 -11.38672 -11.86969 -12.40219 -12.84437 -12.95672 -13.62766 -13.45859 -14.20859 -14.45031 -14.35984 -14.43891 -13.91859 -14.5675 -14.46438 -15.2575 -15.02938 -14.59266 -15.34297 -15.48766 -16.09 -15.87469 -15.71109 -16.48672 -16.34297 -17.02547 -18.19719 -18.36281 -17.79094 -15.73672 -17.64484 -18.61 -18.81391 -18.80234 -19.22156 -19.25375 -19.32094 -19.51063 -19.93063 -18.63703 -16.66438 -16.61469 -18.88391 -19.36938 -20.94203 -21.67141 -21.56922 -22.93047 -23.85703 -24.58734 -24.66375 -26.24328 -28.39719 -30.33031 -30.74859 -25.99688 -27.06719 -25.02578 -32.33047 -31.46812 -26.80328 -26.24922 -28.72891 -26.08594 -26.82344
