ncols         411
nrows         37
xllcorner     242781
yllcorner     6048051
cellsize      20
NODATA_value  -9999
32.91 34.21 38.38 45.84 49.65 50.14 49.95 47.55 44.8 42.62 42.05 44.4 43.96 42.91 41.62 40.09 39.76 37.53 34.03 29.69 26.08 22.35 19.22 14.89 10.85 8.54 7.96 8.993 12.97 18.93 23.56 28.29 31.17 31.95 30.48 27.69 25.03 23.74 21.84 19.08 16.98 14.78 12.68 10.86 8.72 5.608 2.904 2.076 4.493 8.824 15.1 21.09 24.35 24.11 19.71 20.19 25.23 29.29 32.23 35.64 38.9 39.66 36.99 33.36 29.63 25.98 21.73 17.93 17.16 20.47 20.85 23.29 26.43 27.63 27.77 25.62 20.68 14.49 13.33 16.37 20.92 25.13 29.19 32.79 35.53 37.85 40.14 42.04 45.3 48.58 54.27 59.53 62.59 63.88 63.85 61.48 58.81 54.66 50.59 46.53 42.26 37.21 31.22 32.03 30.82 31.67 35.45 38.35 40.05 39.84 39.32 39.04 41.27 42.25 42.69 41.23 39.95 42.45 41.9 41.73 42.66 47.12 50.46 53.65 56.04 58.95 61.82 61.48 60.98 63.37 67.44 69.46 71.3 73.72 76.1 78.32 80.19 84.73 90.25 95.06 99.63 105.1 108.7 110.6 109.3 106 101 97.53 93.56 89.36 87.15 85.05 82.18 78.75 74.2 70.51 64.21 62.37 64.64 69.1 74.07 79.21 80.5 81.45 82.23 83.58 83.1 82.47 82.39 80.16 80.01 80.09 79.82 79.94 80.02 80.47 76.24 68.9 57.91 51.09 47.66 46.64 45.15 43.81 42.35 40.92 41.21 41.43 42.35 44.45 45.58 46.88 53.42 61.67 70.23 74.91 78.44 80.66 79.97 77.13 70.48 62.15 54.28 52.01 50.95 49.57 50.84 49.83 51.05 52.48 53.69 54.48 54.56 53.68 52.41 50.83 48.66 46.45 44.29 41.37 39.45 37.38 37.55 37.28 36.91 36.65 36.19 36.73 39.11 42 45.36 48.55 50.19 48.79 45.47 42.58 40.11 37.72 35.27 33.02 30.58 28.26 26.58 28.04 29.44 30.51 31.61 32.46 32.49 32.4 32.37 32.31 31.81 30.9 30.11 28.68 26.89 23.57 20.78 17.59 15.77 16.25 16.65 16.8 17.09 17.39 17.91 18.54 19.23 19.75 19.88 20.08 19.99 19.97 20 20.02 20.02 20 19.97 20 20.01 20 20 20.01 20 20 20 19.99 19.99 20.03 20 19.99 20.02 20.02 20.02 20.01 20.02 20.04 20.01 20.02 20 19.99 20 19.99 19.99 20 19.98 20 20.04 20 20 19.99 20 20.07 19.77 20.7 22.42 24.96 27.29 29.65 32.04 33.82 35.94 37.76 40.12 43.52 47.64 50.67 52.49 53.07 50.92 46.4 41.33 40.34 39.87 39.94 39.95 40.04 40.02 40.01 40 40.09 39.77 40.9 43.38 48.52 54.2 59.28 60.42 59.86 59.94 60.38 59.97 58.47 55.01 53.11 52.26 56.02 62.7 70.23 75.39 76.78 76.99 76.42 74.19 69.38 65.91 60.35 59.82 60.11 59.92 61.38 62.13 62.14 61.52 61.87 61.44 63.37 65.61 70.91 76.85 82.83 88.44 90.19 90.33 93.89 93.05 91.12 87.8 85.64 84.43 86.41 88.03 89.25 89.69 90.2 89.99 89.94 89.9 89.96 90.05 90.03 90.03 87.88 79.77 71.45 64.49 61.33 59.6 59.81 59.21
24.42 28.52 34.76 42.37 44.35 49.97 51.45 51.93 50.79 48.89 49.02 50 48.9 47.36 45.66 44.27 42.46 38.73 34.54 29.81 25.08 21.01 17.52 12.55 10.98 11.37 10.72 10.93 13.7 20.06 23.64 28.91 31.83 33.96 33.29 31.39 28.78 26.31 23.59 21.38 19.18 16.8 14.37 11.92 8.662 4.506 2.632 2.756 1.939 6.04 12.29 17.93 20.89 20.04 16.81 18.85 23.65 26.69 29.12 32.93 36.21 37.66 36.03 32.79 29.43 25.82 21.78 17.91 19.08 22.66 24.26 24.71 27.25 29.58 30.06 27.95 24.45 18.2 13.03 16.24 19.83 24.07 28.2 31.52 35.18 38.52 41.89 44.5 48.01 51.88 56.29 59.36 61.74 61.49 58.43 55.11 51.36 46.68 42.58 39.72 35.6 27.58 29.4 31.54 33.45 36.29 39.24 41.95 43.9 44.56 45.57 45.68 46.53 47.84 48.11 45.83 43.24 45.39 44.68 42.63 40.87 43.44 46.73 49.64 51.01 53.97 56.88 56.4 56.1 57.34 61.69 63.72 66.22 68.75 70.14 71.51 74.81 80.49 86.44 90.39 95.56 100.4 105.5 109.5 110.8 108.6 105.9 101.9 98.09 94.43 91.47 89.31 85.22 80.28 75.96 72.22 66.45 65.11 66.86 69.63 74.38 80.5 83.15 84.16 86.16 89.1 88.15 86.88 83.8 81.24 79.52 79.8 79.96 80.23 79.94 79.35 72.95 63.79 53.2 51.33 47.9 46.38 44.26 42.83 41.01 39.09 39.17 39.5 40.64 42.44 42.19 44.29 50.69 58.57 67.85 72.37 75.91 78.97 77.46 73.32 66.51 57.46 51.74 49.13 50.06 49.9 49.85 49.94 49.8 49.35 50.7 50.59 49.76 49.34 49 47.46 46.13 44.33 41.9 39.12 36.23 34.03 32.72 32.52 32.35 32.14 31.76 32.42 35.29 38.35 41.87 45.46 48.31 48.04 47.63 46.19 43.68 41.44 38.9 36.35 34.02 31.61 29.16 29.35 30.5 32 33.04 34.06 34.17 34.07 34.04 33.61 32.91 31.97 30.44 27.82 24.99 21.86 18.85 16.22 14.96 15.57 15.81 16.04 16.3 16.62 17.09 17.73 18.43 19.18 19.67 20.06 20 19.98 20.02 20.01 20 19.98 20 20.01 20.01 20 19.99 20 20 19.98 19.99 20 19.99 20.01 19.99 19.97 19.98 19.99 19.99 19.99 19.99 20 20 19.99 19.98 19.98 19.99 19.99 20.01 20.01 19.97 19.99 20.01 19.99 19.99 19.99 19.99 19.97 19.87 21.43 23.5 25.79 28.05 30.39 32.72 35.04 37.05 39.58 42.27 45.64 49.67 53.79 56.76 57.23 54.67 50.34 45.93 40.77 40.34 39.96 40.02 40.07 39.99 39.96 39.93 40.06 39.8 40.7 43.11 49.34 54.99 58.8 60.7 60.13 59.96 59.97 59.99 60.6 58.46 57.58 58.02 62.35 68.07 74.64 79.26 81.66 81.53 80.65 78.59 76.34 73.6 69.88 65.47 65.06 66.28 66.99 67.54 68.66 67.58 67.14 66.91 66.55 67.25 68.36 72.86 79.14 85.96 90.98 95.2 97.79 97.42 94.62 90.42 87.5 88.43 89.49 89.94 90.14 90.11 90.07 90.01 90.01 89.98 89.99 89.96 90.05 90.04 88.19 79.74 71.55 63.87 59.53 59.74 59.98 57.92
17.87 24.62 31.55 35.99 37.5 43.61 49.7 53.67 54.54 55.7 55 54.87 52.85 51.3 49.27 47.04 42.47 37.27 33.01 28.46 23.37 19.19 15.19 11.95 12.71 15.93 13.94 11.3 14.14 20.14 23.72 28.1 31.63 35.06 35.43 34.17 32.12 30.08 25.64 23.38 20.8 18.24 15.96 13.09 8.941 4.476 3.413 3.925 2.738 3.882 8.422 14.31 17.57 17.14 14.09 17.1 21.48 23.01 26.19 30.59 34.11 35.62 35.09 32.08 28.91 24.98 20.47 19.72 21.72 23.99 26.8 27.88 28.91 31.19 31.32 29.81 25.98 19.08 13.18 14.79 18.88 21.93 25.83 28.8 32.28 36.59 40.57 45.29 49.54 53.15 55.64 58.22 57.33 55.5 52.03 47.64 42.89 38.56 34.33 31.82 28.75 28.87 31.8 35.15 37.17 39.42 42.38 44.84 48.46 49.89 50.86 51.46 51.79 53.23 52.77 50.17 46.31 48.64 49.04 47.22 43.76 44.7 43.41 44.76 45.97 47.64 50.79 50.46 50.66 52.17 55.65 58.33 61.39 64.3 64.89 67.3 71.08 76.74 81.56 85.48 91.22 95.65 101.5 107.3 109.2 111.8 109.8 106.3 102.5 99.11 96.01 93.27 88.92 82.12 76.3 73.24 68.62 67.69 68.71 70.02 75.17 81.14 85.18 87.03 90.37 93.52 93.93 90.51 83.96 80.72 79.89 80.64 80.45 79.7 78.49 74.01 66.41 56.37 50.54 52.38 49.4 46.03 43.53 41.76 39.8 37.62 36.95 37.5 38.48 38.68 38.15 42.31 48.01 55.68 63.6 69.85 73.47 76.16 76.02 72.46 65.07 56.3 50.23 49.92 50.19 50.01 49.96 50.05 50.15 50.09 50.04 48.7 47.66 46.73 46.24 44.79 43.38 41.92 39.4 36.78 34.02 31.28 29.26 27.9 27.76 27.53 27.08 28.36 31.2 34.68 37.99 40.58 43.79 46.11 46.71 47.35 46.82 44.84 42.9 40.28 37.55 35.2 32.55 31.12 31.61 33.64 34.62 35.54 35.89 35.77 35.63 34.9 33.1 31.74 29.22 26.11 23.04 20.1 17.06 14.25 14.27 14.8 15.04 15.26 15.54 15.9 16.4 16.97 17.61 18.28 18.97 19.67 20.01 20.05 19.97 19.97 20 20 20.03 20.02 20 19.98 19.98 19.99 20.01 20 19.99 19.99 19.99 20 19.99 19.98 19.99 20 20 19.98 19.99 20.01 20.01 20 20.01 19.99 19.98 20 20 19.99 19.97 19.98 20 19.99 19.99 20 20.01 19.98 20.22 21.85 24.22 26.48 28.86 31.12 33.49 35.77 38.06 40.63 44.06 47.35 51.3 56.05 60.06 60.03 57.98 53.92 49.78 45.04 40.61 39.79 40.08 40.08 40 39.95 39.95 40.05 39.95 39.83 41.47 47.04 52.71 56.58 58.65 58.79 59.56 59.93 59.36 60.45 60.46 61.96 65.01 68.22 73.56 78.72 83.17 86.21 86.09 85.34 82.62 80.7 78.26 75.33 72.7 71.22 71.93 72.51 73.24 74.35 73.98 73.44 72.4 70.95 70.64 70.05 70.58 77.04 83.48 89.14 95.93 99.25 100.3 98.21 94.68 90.13 90.21 90 89.97 89.91 90.04 89.99 90.03 89.98 89.95 89.96 89.92 89.97 89.82 88.84 80.48 72.57 65.42 61.27 60.01 58.83 56.81
16.83 22.45 28.43 28.09 31.77 38.91 45.66 50.64 55.5 58.04 60.49 59.41 57.37 55.15 52.33 48.16 41.64 35.8 30.88 24.86 20.09 16.87 15.88 17.03 17.41 17.88 17.46 13.97 14.49 20.19 23.81 27.77 32.03 35.61 37.37 36.8 33.51 29.37 26.42 23.11 20.92 18.51 15.66 12.51 8.028 4.151 4.227 5.042 3.067 2.575 5.539 10.12 13.96 14.25 12.01 14.97 17.1 18.89 22.55 27.8 31.68 34.16 33.44 31.13 28.11 24.28 20.68 22.66 24.66 26.07 28.56 30.83 31.55 33.03 32.33 31.04 26.65 19.84 14.5 15.27 18.82 21.5 23.46 26.17 29.7 34.54 39.69 44.74 48.63 51.47 53.18 53.66 51.85 48.6 44.88 40.67 34.22 26.79 25.28 25.63 27.64 29.88 33.29 35.89 39.15 41.66 44.58 48.59 52.86 55.19 56.17 57.01 56.94 57.22 57.92 54.19 50.63 51.4 52.56 52.83 50.51 47.26 46.86 46.45 46.83 44.9 45.09 46.78 47.88 49.84 51.1 53.3 56.72 58.88 58.75 62.32 67.55 72.97 75.6 79.03 84.06 90.86 97.05 102.4 107.4 110.5 111 110.5 106.8 104.3 101.1 96.97 91.29 85.29 79.63 75.65 71.19 70.16 68.3 69.46 75.24 81.51 86.62 89.12 93.84 97.98 97.51 91.14 82.38 79.17 79.57 79.96 77.1 74.68 72.34 67.56 58.77 52.66 52.96 53.61 51.66 47.36 43.63 41.24 38.76 36.02 34.67 35.2 34.72 33.04 35.09 41.04 45.82 52.59 59.54 65.77 70.65 73.32 73.98 71.25 65.48 56.33 50.39 49.71 50.09 49.92 49.94 49.97 50.02 49.85 50.35 48.38 44.98 44.31 43.6 41.95 40.96 39.34 37.07 34.41 31.81 29.05 26.47 23.97 22.96 22.71 22.58 24.21 27.57 30.97 33.96 37.57 40.63 43.01 43.12 43.57 44.67 46.1 44.32 43.32 41.19 38.58 36.2 33.23 32.7 34.46 36.19 37.13 37.45 37.22 36.63 35.17 33.25 30.58 27.17 24.24 21.28 18.29 15.33 13.07 13.58 14.05 14.2 14.42 14.81 15.17 15.6 16.2 16.86 17.52 18.19 18.86 19.6 19.88 20.09 19.99 19.98 19.98 19.97 20.02 19.99 20 20 20 20.01 20.01 19.99 19.97 19.98 20.01 19.99 19.99 19.99 20 20.02 20 20 20.01 19.98 19.98 20.01 19.98 19.98 19.98 19.99 19.98 19.97 19.97 19.99 19.99 19.99 20.01 20.02 19.98 19.98 21.96 24.45 26.87 29.17 31.58 33.87 36.33 38.66 41.56 45.17 49.03 53.04 58.13 59.81 60.18 59.72 56.86 52.27 47.24 42.17 39.86 39.77 39.87 40.06 39.97 39.97 39.99 40.06 39.76 40.16 40.91 44.97 50.29 53.95 55.53 55.48 56.02 56.94 58.02 61.64 65.37 69.34 72.45 79 83.49 88.04 90.66 90.95 90.49 87.55 85.71 83.28 80.49 78.21 76.87 76.83 77.67 77.84 78.4 79.56 79.9 78.8 76.91 74.29 72.33 72.39 77.03 80.49 86.86 93.75 99.74 100.3 99.91 99.52 93.11 89.57 89.88 90.01 90.02 90.12 89.89 89.97 89.95 89.95 90.01 90 90.09 90.02 87.87 82.66 75.07 69.23 64.52 60.29 58.3 57.23
14.85 20.51 22.39 24.26 28.27 32.83 38.26 45.25 52.53 58.95 62.33 62.65 61.34 58.57 54.07 48.8 41.93 34.8 28.24 23.2 20.57 22.31 23.22 21.25 20.01 21.88 18.65 15.41 17.6 20.57 23.15 28.29 32.82 35.92 37.51 37.16 33.68 28.96 24.24 21.34 20.51 17.87 14.8 11.43 7.247 5.103 4.97 5.58 3.546 3.099 4.482 8.029 10.7 10.79 10.32 12.17 13.72 16.31 18.73 23.66 29.48 33.37 32.81 30.19 27.41 24.02 22.18 22.47 26.06 29.29 31.42 33.19 33.64 34.87 33.87 31.58 27.01 20.39 13.54 15.89 19.3 22.12 25.9 29.05 31.92 35.13 39.4 43.1 46.22 47.3 47.55 47.64 45.05 41.78 37.91 33.8 27.1 26.04 28.98 30.38 29.97 30.65 35.36 38.25 40.92 43.57 47.46 51.63 55.85 59.94 61.11 61.6 61.77 62.3 61.46 58.44 55.2 55.48 56.28 56.96 56.15 53.31 53.17 52.7 50.21 49.14 50.21 50.15 50.78 51.62 50.28 50.51 53.2 53.93 55.82 60.55 64.6 66.73 68.24 73.1 79.3 85.81 91.8 97.89 103.1 107.2 110.6 111 110.2 108.9 105.4 100.5 94.23 87.6 82.89 78.42 74.85 72.77 69.24 69.54 73.86 80.93 86.71 91.98 97.76 100.2 98.32 89.57 82.03 80.22 77.1 73.76 73.2 73.06 71 69.19 62.84 56.95 54.7 55.45 54.04 50.27 45.46 41.89 38.55 34.72 31.75 30.96 28.92 30.08 33.5 39.27 43.82 49.53 55.13 60.28 65.37 69.67 72.19 69.63 65.66 56.25 50.79 49.68 50.04 49.99 49.99 50.01 50.08 50 49.76 48.03 43.39 42.01 41.15 39.1 38.11 36.9 34.72 32.01 29.38 26.64 23.96 21.14 19.13 18.02 18.51 20.35 23.91 26.96 30.74 34.32 37.29 39.85 39.88 40.34 41.15 42.32 43.43 44.26 43.86 42.63 40.16 37.46 35.22 34.92 37.26 39.03 39.35 38.61 36.72 34.77 31.45 28.42 25.47 22.49 19.46 16.48 13.5 12.42 12.9 13.15 13.36 13.62 14.04 14.4 14.83 15.39 16.07 16.74 17.42 18.02 18.76 19.35 19.89 20.07 20.03 19.97 20.01 20.02 19.99 20.03 20.04 20.01 19.99 19.99 20 20 20 20.02 20 19.99 19.99 19.99 20 20.01 20.01 20.01 19.99 19.96 19.97 19.99 20.01 20.03 20 19.99 19.98 19.98 19.97 19.99 19.99 20 19.99 19.97 19.87 21.73 24.12 26.51 28.84 31.22 33.52 35.9 37.98 41.55 45.27 49.67 54.65 58.79 60.44 59.95 60.32 58.18 54.36 49.12 43.86 41.16 39.89 39.56 40.15 40.01 39.96 39.99 40.02 40.1 39.94 40.07 40.78 42.86 47.61 50.23 50.6 50.26 52.03 56.3 60.76 65.99 70.44 75.46 80.55 86.16 91.6 96.04 97.09 96.94 94.51 91.21 88.52 85.91 83.71 81.91 81.63 82.64 82.07 82.46 84.01 85.45 85.6 85.08 82.52 80.28 80.81 82.67 84.69 85.98 90.71 97.28 99.81 100.4 99.88 96.8 91.44 89.18 90.26 90.16 89.94 89.9 90.07 89.99 89.94 89.92 89.81 89.7 90.27 89.41 85.16 78.93 72.82 67.44 62.08 58.92 58.3
11.59 15.89 17.23 19.5 22.49 26.62 31.82 40.17 49.9 58.75 63.56 65.6 64.86 61.51 56.4 50.63 44.01 36.68 30.2 23.88 25.13 27.83 27.73 25.87 24.24 24.74 20.74 18.04 20.13 22.29 23.64 28.81 32.44 35.63 36.65 35.09 31.67 27.66 22.62 19.58 18.59 16.91 13.81 10.52 7.139 5.936 5.959 5.385 3.899 4.428 5.91 6.043 7.77 9.198 11.38 13.53 15.52 17.82 20.57 24.3 27.56 33.22 33.78 30.2 28.53 26.47 24.53 23.81 28.06 31.18 33.85 35.57 36 36.64 35.3 31.86 27.09 20.67 14.1 15.66 18.81 22.09 25.89 29.26 31.94 35.44 38.79 40.75 41.72 40.95 40.53 39.79 37.51 34.15 30.9 27.2 24.59 28.45 31.3 32.45 33.23 31.98 34.74 39.29 42.64 45.93 50.54 54.68 58.95 63.25 66.53 67 67.05 66.87 65.73 63.08 58.23 60.24 59.87 61.43 60.55 59.55 58.73 57.56 54.48 53.03 55.34 55.01 55.65 57.79 56.66 54.3 52.53 52.83 55.12 55.55 58.99 60.99 63.28 68.87 75.25 81.66 88.08 94.06 98.05 102.2 106.9 110.2 111.7 111 107.8 103.2 97.46 91.54 86.1 82.09 78.32 74.29 71.93 71.62 75.33 80.48 87.09 93.69 99.05 100.1 95.77 89.23 83.14 80.83 77.15 73.85 73.16 71.91 68.2 65.21 60.43 59.16 57.4 55.27 51.87 50.81 46.56 42.92 39.04 34.65 29.7 25.88 24.6 26 31.56 36.12 40.71 45.3 50.03 54.49 59.03 64.2 67.57 69.13 63.74 55.91 51.05 49.71 49.96 50.03 50 49.94 50.09 49.96 49.43 46.55 42.01 39.19 38.16 36.6 35.53 34.38 32.35 29.67 26.97 24.27 21.61 19 16.29 14.21 13.65 16.58 20.19 23.86 27.94 30.85 34.18 36.65 36.89 37 37.83 38.65 39.46 40.46 41.69 41.79 42.01 40.8 38.29 37.12 37.41 39.7 40.02 38.06 35.78 32.73 29.59 26.64 23.68 20.71 17.74 14.73 11.77 11.63 12.09 12.36 12.54 12.83 13.24 13.65 14.08 14.62 15.3 15.95 16.63 17.29 17.95 18.63 19.33 19.75 20.05 20.05 20.01 20.01 20.01 20 19.98 20 20.01 20 20.02 20.01 20.02 20.02 20.01 19.99 19.99 20 19.99 20 20.01 20 20 19.99 19.97 19.99 19.99 19.99 19.98 19.99 19.99 19.98 19.98 19.99 20.01 20.02 19.99 20.03 19.87 21.27 23.48 25.88 28.14 30.46 32.77 35.16 37.19 40.1 43.69 49.3 54.8 58.25 60.91 59.89 60.18 60.28 56.18 51.07 46.54 42.82 41.82 39.66 40.03 40.02 39.95 39.99 40.03 40.04 40 39.83 39.46 39.06 41.07 44.25 46.55 46.67 49.59 53.32 58.47 63.5 70.54 76.71 82.57 89.02 95.18 99.62 100.1 100.2 100.2 98.72 95.07 91.22 89 87.51 86.24 86.13 85.96 86.72 88.01 90.02 91.62 91.53 90.41 88.06 88.17 88.41 89.73 89.65 89.78 95.41 98.27 100.9 99.96 99.02 94.33 89.35 89.51 89.95 90.12 90.12 90.06 89.92 90.26 90 90.25 91.86 91.73 90.85 87.19 82.31 75.84 69.61 63.45 60.28 59.39
10.55 14.5 15.4 18.68 20.52 22.59 28.48 37.77 48.28 57.44 62.85 66.72 66.82 64.64 58.71 52.56 45.92 38.6 31.11 27.52 29.79 32.67 32.18 30.44 28.94 26.8 22.1 20.29 23.09 25.28 25.54 29.13 32.78 34.81 34.8 32.6 28.65 24.7 20.96 17.65 15.93 14.93 12.37 8.555 6.778 6.06 6.11 5.777 3.607 5.302 7.945 7.785 8.96 10.76 15.06 18.3 20.98 22.9 25.58 28.38 30.95 33.59 34.98 32.71 31.16 29.15 26.45 25.7 29.22 32.99 35.51 37.83 38.7 38.66 36.05 32.64 28.09 22.15 15.68 15.91 17.83 20.62 24.6 27.99 30.31 32.97 34.99 36.52 35.47 33.8 32.74 30.69 27.31 25.44 24.17 23.48 26.28 30.33 33.01 35.23 36.55 35.39 35.1 39.13 43.51 48.49 53.38 57.37 62.19 67.37 70.93 71.92 71.59 71.34 70.3 67.6 66.09 65.12 65.1 66.21 65.77 65.6 64.84 61.68 58.92 57.89 59.98 59.56 59.61 61.49 62.1 60.78 59.36 57.95 56.2 54.33 55.1 57.29 60.75 66.03 72.21 77.97 83.36 88.21 91.98 97.14 102.8 108.2 111.2 112.2 109.5 106.4 100.9 95.59 89.89 84.42 81.02 76.43 75.7 75.73 78.08 83.07 90.99 96.84 99.3 98.17 92.77 85.27 81.54 79.18 73.14 71.84 67.62 64.31 62.79 60.13 57.37 52.71 49.09 48.77 47.99 48.49 46.42 42.75 39.65 35.8 31.18 26.75 23.27 23.63 28.23 32.01 36.32 40.91 44.05 47.84 52.02 56.99 61.28 62.94 63.04 56.54 52.26 51.69 49.97 49.99 50.03 50.05 50.09 49.71 48.79 45.36 40.43 37.32 36.08 33.09 32.78 31.81 29.92 27.35 24.67 21.97 19.29 16.52 13.81 11.22 10.34 13.35 16.93 21.04 24.84 27.56 30.97 33.24 33.96 33.94 34.48 35.46 36.36 37.15 38.09 39.08 40.18 41.59 40.84 39.99 38.75 40.3 39.68 37.15 33.87 30.74 27.86 24.86 21.86 18.89 15.91 12.81 10.49 10.98 11.4 11.59 11.74 12.02 12.54 12.92 13.33 13.83 14.53 15.18 15.84 16.49 17.18 17.8 18.46 19.19 19.69 20.05 20.01 20.04 19.97 20.01 19.99 20.01 20.02 20 20.03 20 20 20.01 20.02 19.99 19.99 19.98 19.99 19.99 19.99 19.99 20.03 20.02 20 20 20.02 19.99 20.02 20.02 19.97 19.97 19.97 19.98 19.99 20.01 20 20.07 19.83 20.71 22.58 25.06 27.27 29.53 31.81 34.12 36.24 38.43 40.63 46.24 53.07 57.29 60.92 60.03 59.97 60.52 57.47 54.04 49.74 46.61 42.94 40.52 39.89 40.08 40.04 40 40.05 40.02 40.03 39.91 40.16 39.63 40.21 41.23 43.5 46.82 50.5 54.1 57.79 62.68 69.62 77.2 85.23 91.39 96.65 99.46 100.2 100.1 100.7 99.85 100.2 97.39 95.48 95.26 94.26 94.01 93.31 91.79 93.77 95.42 97.07 98.48 98.3 96.22 92.46 89.8 90.16 90.04 90.09 93.22 99.55 103.7 104.2 103.4 99.13 95.1 91.16 89.62 90.5 89.33 90.5 89.7 89.69 91.79 93.21 96.77 97.76 96.68 93.13 85.75 78.36 71.45 64.74 60.75 59.97
14.59 16.18 21.26 22.93 25.5 29.12 34.39 40.41 48.72 54.72 59.65 64.67 69 66.42 61.2 54.74 48.62 41.4 36.14 33.44 35.92 38.42 37.39 35.4 32.34 29.79 22.91 22.93 25.84 29.45 29.98 31.09 33.86 33.64 31.82 28.82 24.98 20.91 17.06 13.26 12.33 10.52 10.54 7.733 6.483 5.815 5.554 4.936 4.718 6.064 9.363 11.84 13.94 15.63 18.31 21.94 24.86 27.23 29.41 32.32 34.3 35.42 35.97 34.96 32.82 31.74 28.84 28.26 29.31 33.51 36.5 39.44 41.13 40.83 38.51 34.73 30.31 24.54 18.06 14.94 17.12 19.49 22.12 25.42 26.71 29.19 29.81 29.45 28.04 26.48 25.44 21.3 21.89 21.9 24.14 28.4 30.12 31.34 34.55 37.12 39.66 38.69 37.94 39.63 44.44 49.57 54.51 59.42 64.95 71.07 74.87 76.48 77.17 76.05 74.92 73.26 71.55 70.57 69.81 70.21 71.26 70.97 70.01 66.51 64.19 62.84 64.79 64.09 63.24 65.54 66.51 65.59 64.6 64.03 62.43 59.89 57.57 55.51 57.52 62.98 69.6 74.16 77.96 81.17 85.72 92.58 99.02 104.3 109.2 111 111.1 108.5 104 98.87 92.99 87.66 83.65 79.47 79.12 81.29 84.25 86.82 94.09 98.13 99.63 96.74 90.71 81.99 77.62 73.44 66.79 63.76 60.14 58.39 56.52 54.2 50.96 44.51 42.24 43.1 43.46 44.16 43.05 41.47 38.62 34.75 31.57 27.28 23.43 21.16 23.75 27.14 31.56 35.85 38.21 40.26 44.68 49.82 53.33 55.65 59.11 58.63 55.6 55.44 52.99 49.65 50.16 50.29 50.17 49.47 48.09 44.25 39.16 35.58 33.08 31.08 29.97 29.35 27.58 25.03 22.31 19.53 16.66 14.44 12.45 10.47 9.54 10.5 14.17 18.09 21.74 23.9 27.64 30.39 30.8 30.77 31.16 32 32.92 33.79 34.64 35.62 36.27 37.26 38.35 38.87 38.87 39.95 39.62 35.56 32.11 29.04 26.09 23.04 20.08 17.11 14.08 11.01 9.315 10.26 10.54 10.68 10.93 11.31 11.77 12.05 12.65 13.05 13.74 14.4 15.05 15.71 16.38 17.04 17.69 18.35 19.06 19.73 20.05 20.09 19.97 20 20 20.01 20.01 19.98 20 19.99 19.99 20.01 20.01 20 20.02 20.02 20 19.99 20 20.01 20.02 20.02 20.04 19.99 20.02 19.99 19.9 20.07 20.01 19.97 19.96 19.97 19.98 19.98 19.98 20.05 19.93 20.2 21.46 23.98 26.17 28.41 30.56 32.66 34.58 36.48 38.87 42.23 47.96 54.69 59.41 60.39 59.82 60.04 60.17 57.53 53.6 49.92 46.05 41.95 39.34 39.96 40.11 39.99 39.98 40.03 40.02 39.98 40.03 39.91 39.95 41.93 46.93 51.22 52.67 56.08 59.11 63.58 69.62 78.31 86.44 92.86 97.02 99.18 100.1 99.14 98.09 99.27 99.21 100.4 99.76 99.77 99.36 98.53 99.63 100.2 99.73 98.9 99.88 99.88 99.74 99.65 98.36 93.93 89.94 89.77 90.08 93.75 101.1 107.5 108.3 106.9 104.3 101.6 96.73 91.11 89.05 88.2 88.81 90.82 95.77 98.38 100.4 101.2 101.4 101 95.6 90.11 81.23 73.02 66.07 60.63 59.84
17.43 21.05 23.61 26.28 29.48 32.36 35.13 40.03 45.07 49.4 56 62.53 67.74 68.91 64.96 58.75 52.09 46.23 42.91 41.04 42.61 43.75 42.29 38.44 35.43 30.08 25.01 26.19 29.72 32.59 33.71 33.54 32.64 29.9 26.3 23.81 19.48 17.47 14.9 13.08 11.37 11.74 9.159 7.682 6.797 6.151 8.163 7.251 3.987 6.774 10.72 13.37 16.94 18.77 21.39 24.68 28.04 30.81 33.3 35.43 37.19 37.66 37.62 36.91 35.83 34.45 32.01 30.3 30.88 33.34 36.89 40.17 42.3 42.84 40.6 36.94 32.5 27.15 21.5 17.22 15.18 16.95 19.11 21.51 22.66 23.26 23.53 22.62 21.25 19.03 19.18 22.69 24.49 26.67 29.25 31.51 33.23 35.28 36.87 38.41 41.79 41.38 41.33 41.95 46.33 51.08 55.6 60.7 67.2 73.43 77.68 80.08 81.28 81.92 80.72 78.85 77.38 76.61 75.14 76.14 76.7 76.42 74.82 72.28 69.8 67.85 68.73 69.76 68.57 67.87 70.09 70.23 69.64 68.65 66.85 64.34 61.03 58.23 58.33 58.1 64.13 68.69 70.16 74.29 82.15 89.05 94.77 100 104.7 107.7 111.3 109.5 107.3 102.2 96.72 90.4 86.33 83.9 84.57 85.94 89.64 92.08 96.82 99.93 100.3 95.79 89 80.51 73.9 68.36 59.94 55.84 53.31 53.17 51.27 47.94 45.06 40.89 37.6 38.83 39.43 39.5 39.17 38.89 36.24 33.44 30.33 27.43 24.66 21.98 21.3 23.87 26.96 30.33 31.95 31.6 37.32 42.38 45.52 48.65 53.8 57.63 60.02 60.82 58.57 53.53 49.08 49.25 49.07 48.79 47.34 42.78 37.41 33.5 30.95 27.01 26.58 26.04 24.9 22.22 19.87 17.77 16.32 14.71 12.56 10.48 9.841 9.772 11.8 14.91 18.09 20.76 24.38 27 27.8 27.84 27.91 28.68 29.57 30.45 31.39 32.26 33.1 33.97 34.8 35.85 38.2 39.43 38.26 33.66 30.28 27.24 24.28 21.25 18.28 15.31 12.21 9.655 8.685 9.673 9.747 9.868 10.12 10.44 10.99 11.39 11.76 12.31 12.96 13.62 14.28 14.94 15.6 16.25 16.93 17.57 18.24 18.95 19.45 20 19.99 20.02 19.97 19.98 19.97 20.03 20 19.99 19.99 20.01 20 19.99 20.01 20.01 20.01 20.02 20.03 20.03 19.94 19.91 20.1 20 19.96 19.84 19.56 19.98 20.04 20.02 20 19.98 19.98 19.96 19.96 19.97 19.94 20 20.9 22.8 24.93 27 29.03 31.09 33.16 35.34 37.27 39.8 42.96 48.48 54.81 58.72 60.78 60.22 60.03 59.78 57.32 53.18 49.87 45.05 40.78 39.8 40.11 39.99 39.95 40 40.03 39.99 39.9 40.15 38.97 42.32 47.34 51.91 54.61 57.99 61.35 64.33 68.94 76.88 86.02 92.08 95.02 96.15 95.71 94.66 92.8 91.48 93.15 95.25 97.81 99.58 100.2 100.6 100.7 100.7 100.2 100.2 100.2 100.2 100.1 100.4 100.1 99.28 98.27 95.51 96.44 100.9 106 109.7 110.4 109.7 107.5 105 102.5 98.04 95.28 92.54 92.57 97.27 101.5 103.4 103.8 104.3 104.4 103.4 98.82 93.62 83.47 72.88 66.39 61.5 59.69
16.51 21.29 24.21 27.5 30.82 31.44 32 33.42 37.49 42.96 51.59 60.74 67.45 70.49 68.12 62.67 57.37 51.96 50.05 49.36 49.23 48.35 45.87 41.58 36.63 32.16 26.47 29.5 32.73 36.05 36.29 34.37 29.68 27.9 24.26 21.27 19.54 19.73 18.75 17.46 15.93 14.07 12.34 7.844 7.345 7.721 10.5 8.134 6.013 4.792 9.498 13.56 16.84 19.8 22.95 26.3 29.69 31.61 34.5 37.41 39.28 40.15 39.73 39.04 38.32 37.21 35.42 33.8 33.94 35.02 37.75 40.63 43.65 44.13 42.13 38.92 34.42 29.22 22.69 18.46 17.16 16.74 15.87 18.03 17.06 16.86 16.89 17.89 18.98 22.14 24.43 26.38 28.22 29.99 31.68 34.34 36.63 38.63 40.09 40.76 42.74 45.46 45.68 45.31 48.89 54.06 58.39 63.53 69.39 75.86 80.19 82.72 85.05 86.07 85.28 83.58 82.14 81.54 79.65 80.14 81.43 81.3 79.31 77.23 75.67 73.37 73.11 74.42 72.81 72.59 74.25 75.24 74.57 73.59 71.04 67.81 64.66 63.14 60.65 59.39 58.09 63.13 65.89 73.4 79.29 85.08 90.23 95.41 99.95 104 108.1 110 109.9 105.3 100.3 94.72 91.19 91.29 89.65 92.2 94.68 97.62 99.17 100.3 99.96 94.91 87.79 79.27 74.44 67.72 58.9 52.39 47.98 44.66 42.96 40.99 38.81 35.84 34.36 34.45 35.26 34.7 35.33 34.48 33.25 30.79 28.46 26.01 23.39 20.97 19.16 21.77 23.08 24.41 25.78 27.8 31.53 34.68 37.19 42.33 48 53.93 59.01 62.16 63.24 61.27 55.59 52.03 50.67 48.29 46.17 41.63 37.56 34.14 30.56 27.12 26.95 25.16 23.28 22.16 19.48 18.56 17.15 14.83 12.64 11.32 11.11 10.7 9.649 12.68 14.27 16.95 21.31 23.84 24.77 24.67 24.87 25.27 26.17 27.12 27.96 28.85 29.69 30.65 31.61 33.03 34.32 35.88 34.8 31.77 28.28 25.26 22.43 19.54 16.49 13.53 10.32 8.443 8.232 8.777 8.822 9.017 9.344 9.581 10.2 10.63 10.95 11.56 12.19 12.84 13.51 14.16 14.81 15.47 16.14 16.79 17.45 18.14 18.82 19.42 19.9 20.06 19.97 19.99 19.96 19.9 19.94 19.97 20 20 20 20 19.99 20 20.02 20.03 20.06 20.04 19.86 19.95 19.68 19.88 20.25 20.42 21.07 19.89 19.84 19.81 19.77 19.98 20.02 19.99 19.95 20.04 20.02 19.98 20.14 21.09 23.35 25.53 27.66 29.74 32.05 34.4 36.69 38.27 39.75 42.77 47.25 53.31 56.07 59.71 60.03 59.92 59.71 56.57 53.58 47.95 42.6 39.59 40.13 39.96 39.94 39.99 40.03 40 40 40.19 39.28 41.82 46.02 51.29 54.36 57.57 61.66 65.1 69.42 75.88 84.6 89.72 91.66 91.45 91.32 88.11 85.99 82.34 84.01 86.22 89.54 94.2 97.42 98.81 98.27 98.2 99.87 99.34 99.49 99.57 99.49 99.58 100.1 100.3 99.69 102.6 104.4 107.2 109.6 110.4 110 110.4 110 107.7 105.2 102.2 99.19 98.22 99.37 102.1 103.8 105.5 107.1 107.2 106.3 103.8 99.34 92.68 81.09 71.3 65.18 61.87 59.64
13.55 18.54 22.64 24.83 25.81 26.2 26.46 27 30.15 38.39 49.34 58.4 65.89 70.58 70.38 67.17 62.82 60.1 57.95 55.61 54.74 52.44 48.39 43.48 37.11 30.39 29.7 34.42 37.66 38.99 38.04 33.14 29.44 27.66 26.71 26.22 25.5 24.84 22.99 20.53 18.34 16.06 10.31 8.127 7.444 9.119 11.28 10.69 7.807 5.118 7.298 11.4 15.97 19 22.06 25.01 28.09 30.69 34.28 37.98 40.81 42.04 41.64 40.75 41.11 39.73 38.37 36.95 37.03 39.28 41.45 42.27 45.34 45.32 42.8 38.75 33.4 28.42 24.45 22.49 21.06 17.42 16.69 17.27 18.51 19.55 18.95 19.22 18.12 21.44 25.43 27.54 29.82 32.4 35.11 37.34 39.24 41.24 42.99 43.93 45.53 47.62 49.5 49.64 52.86 57.39 61.77 67.28 72.69 77.73 81.58 84.56 87.22 87.89 87.97 86.45 84.8 83.4 81.69 80.13 81.77 83.02 83.21 81.75 80.01 79.12 78.92 79.46 78.59 77.36 79.6 79.94 79.95 78.5 75.48 71.28 69.43 68.54 64.36 63.44 61.24 58.52 63.02 70.1 75.71 80.63 85.64 90.37 94.14 99.07 104.5 108.9 111.6 108.6 104.1 98.2 98.41 98.23 96.4 97.27 99.76 99.83 100.2 101.2 99.37 94.25 86.98 79.12 75.14 69.83 61.64 54.86 49.68 44.67 41.61 33.87 35.47 33.8 30.64 29.73 30.21 28.66 29.83 29.5 28.84 28.18 25.82 24.2 21.7 19.47 18.12 18.32 18.93 18.36 20.65 24.16 27.53 28.99 31.11 35.87 41.87 47.82 53.63 58.83 62.94 63.05 61.75 58.07 54.41 51.75 48.03 43.88 40.19 35.71 31.15 30.3 29.02 27.21 25.35 23.64 21.84 20.19 18.33 16.64 14.81 13.47 12.56 11.46 10.25 10.59 11.9 13.04 17.7 21.03 21.57 21.63 21.89 22.05 22.84 23.79 24.63 25.51 26.4 27.39 28.45 28.94 31.28 32.09 29.97 28.59 25.98 22.98 20.37 17.66 14.68 11.64 8.707 6.79 7.699 7.847 8.043 8.198 8.576 8.805 9.504 9.819 10.18 10.78 11.41 12.05 12.71 13.37 14.03 14.7 15.36 16.03 16.69 17.33 18 18.65 19.4 19.87 20.11 20.14 20.11 20.19 20.17 19.96 19.93 19.9 20.04 19.99 19.98 20.02 20.07 19.94 19.84 19.79 19.99 21.32 22.18 23.65 24.03 23.84 23.32 22.41 21.48 20.62 19.94 20 19.99 20.01 20.02 19.99 19.91 19.98 19.84 20.48 21.97 24.29 26.67 29.06 31.44 33.64 36.1 37.11 38.13 39.91 43.33 47.26 51.55 57.04 60.06 60.41 60.42 58.59 56.64 51.44 44.03 39.15 40.23 40.1 40.01 40.02 40.03 39.97 39.91 40.04 39.72 40.6 43.12 47.75 51.22 55.34 60.18 64.34 68.41 74.96 80.59 85.43 87.3 86.88 84.72 81.37 78.69 75.75 76.03 76.28 79.82 83.74 86.64 88.95 90.85 92.29 93.15 94.61 94.33 95.07 95.43 95.71 97.37 98.66 102.2 105.2 109.3 110.7 110.1 109.8 110.1 109.5 109.8 109.9 106.9 104.4 102.3 101.6 104.1 106 107.4 109.1 110.1 109.6 107.2 102.9 97.36 91.43 80.64 69.75 64.64 61.69 60.46
9.535 13.81 18.35 19.61 20.2 19.79 20.55 24.12 30.65 38.54 47.8 56.76 64.42 69.51 72.92 70.6 68.59 65.65 64.29 62.07 59.49 55.82 50.14 43.82 36.02 33.99 34.73 39.64 42.5 42.79 40.4 35.52 33.27 32.18 31.19 30.34 29.54 27.92 25.7 23.11 19.36 15.16 8.433 7.965 8.223 10.83 13.18 11.68 9.86 6.942 7.484 8.64 12.9 16.71 19.87 22.04 24 25.96 31.18 36.69 39.85 42.65 43.64 42.76 42.91 43.36 42.06 40.69 40.26 41.55 44.41 45.08 46.9 46.33 43.63 38.7 33.61 30.6 28.46 27.59 25.25 19.96 18.64 20.94 22.76 23.87 23.56 22.26 19.67 20.62 23.4 27.7 30.39 33.35 36.41 39.16 41.23 43.46 45.85 46.89 48.83 51.02 53.38 54.42 57.64 61.21 65.54 70.79 74.96 78.81 81.42 84.04 84.92 84.5 85.06 84.26 82.54 80.7 76.57 76.77 79.67 83.4 84.15 84.8 84.53 84.01 84.23 85.44 83.98 82.98 85.04 84.61 84.38 83.58 78.87 75.71 74.68 70.88 69.21 68.58 65.08 62.72 63.86 65.16 70.59 75.74 80.37 84.32 89.23 94.96 100.5 106.3 111 111.8 107.5 105.5 104.4 102.7 102.1 102.6 102.3 101.4 101.4 100.6 98.93 94.03 86.4 79.71 76.23 71.84 65.41 58.74 54.4 49.64 43.4 37.55 34.06 33.31 31.62 30.74 28.44 27.9 25.32 25.29 24.53 23.1 21.67 21.57 19.97 20.96 21.38 20.2 18.19 17.83 16.9 19.81 22.6 23.2 25.37 29.99 36.19 42.73 48.84 54.06 58.68 62.82 64.16 63.43 59.44 55.36 51.39 47.18 42.59 36.87 34.3 34.11 32.4 30.28 27.8 25.61 23.72 22.15 20.57 19.25 17.15 15.22 12.73 10.99 10.58 11.08 11.51 12.47 14.4 17.7 18.42 18.56 18.79 18.87 19.46 20.43 21.17 22.28 23.45 24.28 24.42 24.67 28.07 27.5 25.62 24.23 22.79 20.35 17.93 15.56 13.11 9.797 7.338 6.249 7.055 6.98 7.279 7.403 7.8 7.955 8.801 9.026 9.43 10.05 10.6 11.27 11.93 12.58 13.25 13.92 14.59 15.24 15.9 16.52 17.15 17.76 18.8 20.43 22.13 21.81 21.66 21.62 22.04 20.84 20.32 19.92 19.96 19.99 20.01 20.04 19.94 20.39 20.59 21.77 22.98 24.47 26.2 27.85 28.33 27.99 26.61 25.43 23.59 21.8 20.84 19.98 19.83 19.86 19.85 19.84 19.89 19.8 19.79 20.16 21.4 23.59 25.87 28.31 30.69 33.02 35.21 35.61 36.46 37.96 40.15 42.95 46.41 50.72 56.47 59.09 60.2 60.23 58.18 53.75 47.35 41.24 39.89 39.95 40.07 40.05 40.01 40.1 39.96 40.07 40.08 39.98 40.3 44.21 47.97 51.59 56.16 62.2 66.33 72.21 76.35 78.99 80.18 80.4 77.89 74.42 71.81 69.94 68.99 69.44 71.57 75.54 78.97 80.27 81.93 83.81 85.57 87 86.55 87.92 89.28 91.28 89.89 93.44 98.81 107.3 110.8 110 109.5 109.6 110.9 110.5 110.7 110.3 108.5 103.6 101.5 99.08 103.6 108.6 109.9 109.8 110 110.1 107.4 102.2 97.02 90.85 80.11 69.25 66.43 64.24 62.47
6.296 9.102 13.42 14.01 13.87 18.4 23.92 28.63 33.59 40.17 48.17 56.45 63.18 68.65 70.62 72.21 72.03 71.02 68.93 67.06 63.99 58.31 52.15 45.7 40.15 35.71 40.83 45.31 47.65 47.31 43.98 39.78 37.56 36.94 35.67 33.62 31.62 30.03 27.23 23.57 19.31 13.26 8.541 8.565 9.766 12.1 14.26 13.97 11.88 9.519 7.326 7.385 10.81 14.43 17.03 18.9 20.26 24.29 28.75 34.53 37.98 41.2 42.02 42.59 44.67 45.82 45.62 44.01 43.43 44.25 47.06 48.39 49.49 47.75 44.75 40.34 37.24 34.33 32.69 29.1 25.81 22.23 18.47 21.95 25.94 26.92 27.43 25.9 22.23 20.58 21.62 25.32 29.49 33.47 36.82 39.9 42.61 45.46 47.75 49.55 51.79 54.18 57.11 59.17 61.93 65.45 68.51 72.28 74.75 77.2 77.9 80.08 80.64 79.48 78.47 77.99 77.85 73.94 71.2 72.02 75.53 79.31 82.32 84.77 86.28 86.63 86.86 88.45 88.89 89.01 89.71 89.54 88.98 87.75 83.53 80.23 79.52 76.56 75.32 71.96 67.57 67.35 65.12 64.16 67.23 70.14 74.96 76.6 83.25 90.13 97.01 103.5 109.6 112.1 112.2 110.7 109.7 108.5 106.6 104 103.3 101.1 99.06 98.54 96.02 91.98 85.38 80.43 77.15 75.37 69.01 61.77 57.66 53.33 47.43 40.51 39.79 37.75 35.82 34.45 32.97 31.42 29.24 27 24.62 24.72 24.37 24.49 24.78 25.8 24.68 23.93 21.96 18.81 17.25 15.29 18.14 19.16 21.53 24.9 30.9 37.34 42.49 48.81 53.82 58.82 62.45 61.98 61.32 57.59 53.84 50.03 45.04 40.14 38.7 37.68 35.27 32.44 29.78 27.81 26.28 24.61 23.24 21.55 19.37 16.86 14.04 11.98 9.943 10.19 11.93 12.58 13.32 14.5 15.28 15.31 15.64 15.87 16.06 16.94 18.08 19.45 19.5 19.76 18.63 21 23.7 24.81 22 18.28 18.14 17.35 15.1 12.93 10.9 7.766 5.85 5.657 6.174 6.283 6.441 6.419 7 7.269 7.968 8.42 8.542 9.231 9.847 10.5 11.17 11.82 12.48 13.15 13.79 14.44 15.11 15.89 16.73 17.7 19.27 20.96 24 23.88 23.88 23.93 23.73 21.29 19.83 20.05 19.99 20.01 19.95 19.84 20.37 22.1 23.6 25.05 26.48 28.24 29.77 30.76 30.66 30.18 29.49 27.78 26.12 24.72 22.97 21.07 20.81 20.77 20.91 21.19 20.65 20.71 21.25 21.51 22.36 23.72 25.43 27.59 29.89 32.24 33.74 33.83 35.09 36.43 37.5 39.53 43.23 46.41 51.28 56.47 59.86 60.54 59.4 55.6 50.87 45.69 42.28 39.97 39.36 39.42 39.58 39.95 39.99 39.94 39.97 39.98 40.01 41.07 44.19 47.8 52 56.6 62.43 67.24 70.57 72.62 74.53 74.26 71.22 68.78 66 64.54 63.08 63.89 64.65 67.95 70.57 72.95 74.79 75.98 77.17 77.62 77.2 81.97 87.14 89.48 89.89 91.36 100.2 109.1 109.5 110 110.7 111.5 109.1 108.9 108.5 107 105.7 100.7 99.76 99.11 102.3 106.8 110.4 110 110.2 109.6 106.2 101.2 95.88 90.09 80.73 72.9 69.81 69.19 69.39
5.495 6.899 8.688 10.28 15.49 21.14 26.24 31.18 36.1 42.5 48.81 55.96 61.75 65.12 66.49 68.74 71.12 72.87 73 70.98 67.59 61.85 55.74 50.15 45.86 43.98 47.65 51.23 52.24 51.13 48.38 44.92 41.85 41.01 39.04 36.48 34.37 30.95 27.56 23.55 18.11 12.1 8.685 10.43 12.07 13.39 15.48 15.72 14.95 12.82 9.433 7.017 8.6 11.98 14.86 17.08 19.74 23.74 28.76 33.49 36.45 37.83 37.23 41.96 44.65 47.63 48.94 47.69 47.2 47.74 49.89 51.29 51.57 50.15 47.08 43.45 40.33 37.29 34.69 29.66 25.56 19.76 20.29 24.78 27.92 29.81 31.03 29.81 26.19 22.62 20.3 23.02 27.52 31.5 36.29 39.99 41.51 44.37 47.71 51.42 54.29 56.77 59.84 62.96 66.23 69.42 70.31 71.48 73.02 71.74 71.42 74.11 74.71 73.26 72.04 72.07 72.15 67.92 66.15 66.8 70.81 75.38 78.69 81.48 83.46 84.76 86.71 88.56 88.12 91.5 93.03 93.82 93.45 91.95 88.72 86.11 84.88 82.02 80.7 76.65 72.66 73.2 72.31 67.55 67.07 68.46 71.24 76.76 81.44 87.96 94.69 101.2 107.9 112.1 113.5 113.8 110 107 104.7 102.4 99.33 95.6 91.82 91.59 90.28 88.57 84.76 80.36 78.06 76.6 71.9 65.57 59.2 55.47 49.93 44.52 45.03 41.79 39.81 39.06 38.14 36.52 34.1 32.25 28.82 28.46 28.63 29.04 29.68 29.36 28.02 27.16 24.72 21.53 18.71 15.57 14.12 15.35 18.2 21.86 26.7 31.91 36.73 43.29 48.99 54.08 58.03 61.33 62.45 59.62 56.04 51.87 47.72 44.58 43.39 41.15 38.04 34.76 31.94 30.83 29.29 27.62 26.21 23.91 21.25 18.95 15.68 14.43 12.32 9.723 9.637 11.45 11.94 12.26 12.6 12.59 12.72 12.91 13.16 14.2 15.29 16.02 15.68 15.18 15.41 17.93 20.67 20.5 18.37 13.26 12.67 12.72 11.46 9.939 7.607 5.891 4.773 4.931 5.256 5.359 5.575 5.681 6.275 6.442 7.215 7.557 7.834 8.424 9.094 9.698 10.39 11.04 11.7 12.34 12.98 13.8 14.61 15.53 16.81 18.1 19.57 21.98 25.36 25.98 25.96 25.83 24.17 21.81 19.72 20 20.01 19.95 19.86 20.64 22.14 25.1 27.01 28.41 29.78 31.08 32.47 33.25 32.42 31.34 30.93 29.9 28.15 26.38 24.33 22.85 22.15 22.29 22.51 22.97 23.02 23.04 23.51 24.18 24.67 25.35 25.68 27.32 29.1 31.37 32.02 32.01 33.15 33.68 34.36 36.12 39.53 43.03 46.56 51 55.55 59.14 60.64 57.19 53.68 51.07 48.61 45.62 43.46 42.35 40.7 40.01 39.92 40.06 40.07 40.05 39.93 40.08 40.88 44.3 47.76 51.12 57.2 61.88 64.3 65.85 66.66 65.66 63.75 61.53 58.79 57.74 58.08 58.62 59.81 61.69 61.78 63.23 66.12 67.18 67.52 69.24 71.36 76.67 84.33 89.33 91 93.61 101.7 107.6 110.9 109.8 108.7 107.9 104.6 101.3 100.7 100.6 100.5 99.82 99.97 100.1 101.7 105.3 107.8 110.2 107.8 106.3 103.6 99.21 94.57 89.23 83.05 76.76 70.64 69.81 70.07
5.845 6.234 7.87 11.6 16.37 21.66 25.95 29.81 36.06 42.68 49.03 53.94 58.46 59.11 58.78 62.18 66.35 69.48 70.96 71.93 70.6 65.93 60.79 56.35 53.26 52.19 54.43 56.45 56.49 54.92 51.71 48.23 45.44 43.68 40.91 38.36 34.81 31.67 27.61 22.86 17.51 11.08 9.743 10.93 13.52 15.47 17.87 18.85 17.36 14.66 11.85 9.021 8.604 9.49 12.7 16.54 19.83 23.63 28.41 31.89 34.18 33.66 33.66 38.78 44.45 47.05 50.82 50.84 50.57 51.72 53.02 54.17 54.36 52.61 49.38 45.75 42.69 39.32 35.6 30.64 24.96 19.19 22.31 26.53 29.95 31.94 33.28 33.15 31.35 27.36 21.42 21.6 25.18 29.77 34.85 37 38.68 41.96 46.9 51.06 54.92 58.25 61.3 64.86 67.43 67.11 67.27 67.52 67.07 65.44 65.46 68.24 69.25 67.44 65.79 66.12 66.29 63.01 61.06 62.03 67.02 71.15 74.25 76.52 78.47 79.83 83.12 83.71 85.07 89.85 96.1 97.17 97.11 96.89 94.22 92.23 90.11 87.81 85.92 81.26 79.57 79.37 76.64 73.04 73.4 72.27 76.45 80.73 85.78 90.07 95.92 101.4 107.8 112.3 112.7 110.7 106.4 103.3 99.9 95.91 92.79 86.29 83.5 83.06 83.41 83.28 81.21 78.33 77.98 76.7 72.77 69.04 62.6 57.83 53.35 50.16 48.79 45.06 43.86 43.23 42.58 40.6 38.58 36.22 33.66 32.93 33.05 33.41 34.03 33.32 32.19 30.45 27.12 24.72 22.09 19.39 16.25 13.58 13.99 17.31 21.17 26.25 31.15 36.99 42.93 47.95 53.79 58.02 60.43 60.27 56.99 53.63 51.41 48.93 46.45 44.04 41.07 37.56 35.65 34.42 32.94 31 28.5 25.86 22.92 20.31 17.06 15.09 13.28 10.83 8.424 7.64 8.442 9.152 10.39 10.55 10.63 10.85 10.93 11.58 12.32 12.62 12.2 11.97 12.7 15.11 16.84 17.23 13.59 8.836 7.662 7.85 7.68 6.592 5.446 4.063 3.522 4.064 4.397 4.592 4.644 5.019 5.294 5.599 6.572 6.84 6.992 7.678 8.304 8.905 9.577 10.25 10.96 11.65 12.61 13.48 14.61 15.81 17.12 18.37 20.03 22.95 26.1 28.38 27.98 27.11 25.09 23.06 20.34 20.09 20.03 20 19.8 21.7 24.84 27.62 29.88 31.12 32.5 33.87 35.17 35.63 34.79 33.9 33.26 32.14 29.88 27.75 25.74 24.08 23.66 23.82 24.04 24.92 25.64 25.54 26.37 26.79 27.09 27.63 28.4 28.65 29.97 30.2 30.88 30.71 30.37 30.15 30.84 33.9 37.59 39.92 43.17 47.34 50.85 56.77 59.13 58.69 57.27 55.66 54.07 52.11 49.35 46.52 43.66 40.94 40.34 39.85 39.67 39.92 39.99 40.04 40.03 41.25 43.91 46.08 49.27 53 54.79 55.85 55.88 54.03 51.82 51.99 52.07 52.04 51.39 52.64 54.89 56.61 58.54 59.97 59.23 59.32 60.96 64.31 70.87 76.48 83.6 88.93 92.66 96.72 102.4 108.4 110.8 109.1 104.8 100.7 96.81 94.84 94.12 93.8 98.42 100.4 99.76 100.5 99.44 98.84 99.46 100.3 101.2 100.6 99.25 96.84 92.81 87.62 81.24 73.67 70.05 69.89 70.06
9.568 6.23 7.329 10.88 16.29 19.45 23.28 28.66 34.86 40.46 46.09 50.47 52.82 51.08 50.9 55.32 60.53 63.2 66.47 70.45 70.88 70 67.01 63.78 61.05 59.73 60.48 60.81 59.46 56.8 53.59 50.54 48.24 44.89 42.12 37.62 34.19 30.78 26.69 21.77 16.45 11.62 9.445 11.48 14.41 17.39 20.44 20.6 19.7 17.39 14.85 11.95 8.819 9.051 10.76 14.68 18.53 22.14 26.06 29.49 30.61 29.02 32.08 36.35 42.55 45.85 50.04 53.35 53.86 54.75 55.47 56.14 55.34 53.42 50.92 47.04 43.32 39.74 35.69 30.19 24.99 19.99 23.15 27.95 31.49 34.1 35.79 35.96 33.57 30.31 26.04 21.1 24.44 28.15 32.13 33.56 35.52 40.15 45.03 49.38 53.6 57.87 61.22 63.91 64.41 63.41 62.55 61.56 61.08 58.75 59.71 62.34 63.64 62.31 60.24 60.28 60.97 59.83 56.85 59.1 63.34 66.43 69.56 71.72 73.26 75 77.73 77.92 82.22 88.64 95.14 98.76 100.1 100.5 99.23 97.9 95.75 93.85 91.87 87.04 85.97 84.78 81.51 79.8 79.67 79.45 82.48 86.89 91.72 95.85 100.2 105 109.9 111.8 111.6 106.5 101.6 97.52 92.7 89.09 86.81 80.52 75.36 75.59 75.81 76.45 77.5 75.16 75.9 75.41 72.94 71.47 65.96 61.1 57.25 54.12 51.56 48.66 48.35 47.56 46.67 44.75 42.87 40.37 37.67 37.7 37.71 37.85 38.57 37.68 36.23 34.05 30.46 27.91 25.11 22.29 19.3 15.97 11.5 14.36 18 22.6 26.25 31.15 36.02 42.34 49.2 54.92 57.66 58.49 56.55 53.68 51.23 49.33 48.59 46.48 44.17 40.63 39.13 37.82 36.37 34.38 32.23 29 25.56 21.7 18.72 16.27 13.98 11.81 9.232 8.323 8.464 7.521 9.088 9.289 9.243 9.094 9.37 9.698 9.687 9.837 9.436 9.667 10.99 12.27 13.86 11.71 8.502 6.197 4.872 3.225 3.811 4.049 3.883 3.268 3.985 3.656 3.888 4.124 3.665 4.316 4.673 5.115 5.545 6.085 6.163 6.798 7.515 8.195 8.829 9.644 10.41 11.43 12.47 13.51 14.72 16.07 17.44 18.77 20.74 23.75 27.45 29.44 29.65 28.32 26.6 24.25 21.38 19.88 19.79 20.07 20.47 23.94 27.13 30.06 32.32 33.65 35.02 36.59 37.85 38.06 37.19 36.42 35.85 34.05 31.66 29.29 27.36 25.44 25.14 25.21 25.58 26.41 27.5 28.08 29.27 29.78 30.3 30.72 31.19 32.08 33.22 34.17 35 34.85 33.51 33 33.22 34.95 37.21 38.87 41.59 44.94 48.64 52.85 58.34 59.86 60.89 59.58 59.09 57.16 55.04 52.56 49.28 46.11 43.41 41.34 40.73 40.27 39.99 39.91 39.98 39.57 40.26 42.2 44.27 46.22 48.48 50.21 50.77 50.14 49.71 49.26 49.26 49.42 49.1 50.24 52.19 55.09 59.5 59.55 59.29 58.94 61.09 67.66 73.72 82.41 88.59 93.61 97.14 101.3 106 109.7 108.5 102.9 98.74 95.29 92.76 89.78 89.57 91.36 96.13 100.6 99.86 100.4 95.22 92.7 91.88 93.13 94.32 94.68 94.42 92.98 89.43 85.39 79.03 72.45 69.59 69.92 69.81
11.56 7.461 6.643 8.6 11.72 16.49 22.05 27.42 31.88 36.91 41.92 46.27 46.61 43.79 45.41 50.44 53.75 55.93 60.03 64.91 70.41 73.31 72.37 69.58 67.42 65.68 64.51 62.85 60.47 56.69 53.47 50.16 46.61 44.06 41.3 36.49 32.39 29.1 24.56 19.94 15.05 11.36 10.32 12.56 15.89 19.26 21.92 22.42 22.21 20.68 18.7 15.95 12.04 9.583 9.283 12.49 16.64 20.74 23.64 26.79 26.21 26.08 31.84 34.78 40.21 44.83 48.31 52.61 54.85 55.52 55.71 55.36 54.85 52.85 49.96 46.57 43.21 39.7 34.93 29.25 22.8 20.44 25.02 29.73 32.72 35.7 38.28 38.59 36.18 32.78 28.87 23.57 24.59 26.19 29.05 31.57 35.39 38.88 42.81 45.44 49.55 54.46 58.75 61.55 61.51 58.36 55.97 55.25 55.3 54.27 54.28 56.66 58.4 57.37 55.38 54.9 56.19 54.58 52.74 56.33 59.55 62.49 65.01 66.51 68.22 69.95 72.18 74.85 78.93 86.72 93.51 97.74 100.8 102.2 103.8 102.8 101.3 99.02 97.05 93.72 93.16 90.87 85.83 86.07 84.89 86.19 88.71 92.29 96.51 100.3 104.6 108.2 110.8 112.6 108.9 102.2 96.23 90.42 85.48 82.54 80.45 76.6 69.74 69.68 68.4 69.74 71.11 70.99 70.78 71.18 70.66 69.43 67.7 65.18 61.61 58.1 55.26 53.11 52.81 51.33 51.06 48.94 47.24 44.9 43.22 43.35 42.81 42.98 43.25 41.84 40.41 37.25 34.1 31.28 27.77 24.97 21.69 18.4 14.37 11.84 15.04 18.54 22.64 26.75 32.17 38.68 45.78 50.99 53.94 54.35 50.98 49.14 47.86 48.5 47.65 47.54 46.15 43.89 42.55 41.11 39.47 37.51 35.15 31.8 27.95 23.53 20.54 17.54 14.91 12.95 11.19 9.504 7.355 5.65 6.599 6.934 7.237 7.342 7.369 7.624 7.773 7.706 7.267 7.612 8.895 9.643 9.334 6.933 5.185 4.144 2.947 2.2 2.358 2.132 2.242 2.475 3.015 3.314 3.86 4.102 4.199 4.327 4.653 5.084 5.425 5.922 6.247 6.638 7.199 7.752 8.494 9.252 10.4 11.38 12.55 13.65 15.02 16.57 17.89 19.5 21.23 24.95 28.56 30.7 30.34 30.25 28.64 25.9 23.07 20.99 20.25 20.69 22.14 25.13 28.43 31.8 34.62 36.2 37.53 39.3 40.18 40.67 39.6 38.96 38.31 36.1 33.54 31.03 28.78 26.92 26.51 26.72 26.89 27.58 29.45 30.85 33.48 34.01 34.77 35.06 34.92 36.48 38.6 39.5 40.65 40.89 40.47 39.37 37.61 37.2 38.69 41.27 43.45 45.47 48.82 52.15 56.27 59.98 62.67 64.92 64.6 62.73 60.09 57.22 54.15 51.16 48.18 45.63 43.62 42.05 40.84 40.39 39.69 39.96 39.57 39.77 41.7 44.18 46.23 49.54 50.19 49.65 49.63 50.93 51.16 51.82 51.87 51.35 53.74 58.3 60.82 61.01 63.19 66.58 70.63 75.12 81.57 89.42 93.73 98.68 102.9 106.8 110.1 109.3 104.6 98.77 94.34 91.42 88.71 85.33 86.93 89.64 92.45 99.77 101.6 99.25 93.68 90.9 89.4 89.97 89.02 89.24 89.43 88.45 86.26 82.07 76.61 71.85 69.73 70.5 70.29
14.21 10.79 8.144 7.729 8.98 14.8 19.39 22.68 27.29 32.18 37.13 41.07 40.09 38.41 41.36 44.26 45.76 48.86 53.36 62.08 70.35 73.95 76.4 74.48 72 69.46 65.6 62.04 58.38 54.71 50.28 47.48 43.79 40.5 38.52 34.73 31.03 27.16 23.22 18.72 14.06 10.56 12.75 14.92 17.27 20.08 23 25.25 24.93 23.48 21.46 18.81 15.49 12.67 9.665 11.27 15.02 19.11 21.12 20.94 22.16 25.66 29.84 32.38 37.13 42.72 46.19 50.16 54.22 54.86 54.22 52.52 51.32 50.27 48.01 45.28 42.62 39.09 35.36 29.69 22.93 20.97 26.47 31.17 34.48 37.5 39.96 40.55 38.4 35.33 31.43 26.12 24.28 24.82 27.68 31.25 33.45 36.83 38.95 41.43 45.84 50.99 55.14 56.89 56.9 53.94 51.75 49.84 51.07 49.55 50.08 53.59 53.27 51.88 50.26 49.57 50.74 48.79 50.36 53.55 54.65 57.3 59.02 60.52 62.64 66.34 67.69 71.44 76.74 83.93 91.7 96.08 100.2 103 105.7 106.2 106.4 103.7 101.3 99.74 99.44 96.99 92.35 92.74 92.13 93.69 96.1 98.7 101.8 104.6 108.3 110.4 112.4 110.5 105.5 99.6 93.17 86.27 79.26 76.85 74.24 70.62 67.13 64.08 61.86 63.41 64.87 65.2 65.09 64.55 64.82 65.89 65.12 63.38 62.94 61.27 59.15 57.22 56.02 55.81 54.23 52.81 51.73 49.71 48.22 48.07 47.47 47.83 46.85 45.35 43.63 40.34 37.81 34.49 30.59 27.1 23.62 20.01 16.59 12.65 12.07 15.23 19.78 23.8 29.4 36.48 42.76 46.91 50.07 49.57 45.96 43.31 41.06 43.57 44.37 44.82 45.8 45.86 45.74 43.94 42.57 40.23 37.52 34.36 30.25 26.03 22.27 18.95 16.51 14.14 11.8 9.87 8.281 7.37 6.536 5.015 4.52 4.966 4.921 5.098 5.389 5.366 5.43 6.558 7.653 6.439 6.045 5.014 3.903 2.473 2.004 2.134 1.98 2.355 2.244 2.229 2.483 3.106 3.454 4.193 4.525 4.651 4.878 5.227 5.615 6.107 6.361 6.796 7.351 7.863 8.725 9.687 10.66 11.61 12.63 13.86 15.48 17.27 18.85 20.34 22.79 26.28 29.59 32.01 32.13 31.91 30.31 27.71 25.06 22.39 21.89 22.62 23.93 26.5 29.41 33.26 36.42 38.62 40.01 41.9 43.25 42.82 42.2 41.56 40.47 38.04 35.33 32.92 30.42 28.5 27.96 28.18 28.59 29.4 31.57 35.29 38.15 39.1 39.79 39.52 39.07 39.92 42.28 44.14 45.66 46.72 46.46 45.06 43.55 43.61 43.72 45.98 47.83 49.96 51.67 54.67 58.21 60.7 64.11 69.31 69.39 67.91 66.67 64.58 61.19 57.17 53.63 50.68 47.26 44.95 43.47 42.53 41.94 42.08 41 40.79 41.19 43.74 46.87 50.4 49.63 49.76 52.05 53.01 55.05 56.26 56.69 57.66 60.3 63.07 66.13 69.16 71.67 75.57 79.35 82.99 89.27 95.02 99.39 104 107.9 110.8 109.5 106.3 99.83 94.12 90.21 87.38 83.84 83 84.19 87.05 90.12 96.22 98.52 96.69 91.35 89.33 88.52 86.42 84.05 84.14 84.64 83.92 81.52 78.24 73.97 69.13 69.02 68.37 67.46
16.91 13.35 9.544 7.432 7.862 10.73 15.22 18.7 23.6 28.17 32.32 34.76 34.28 34.51 34.68 35.94 39.04 44.86 54.1 62.54 69.76 76.01 78.3 77.02 74.42 70.01 64.62 58.69 53.21 49.52 45.55 42.75 39.4 35.92 35.08 32.24 28.36 23.55 20.36 19.24 14.54 12.28 15.63 18.88 18.98 20.14 24.15 27.1 27.45 26.69 24.5 22.45 18.77 14.77 11.52 10.84 13.08 16.7 18.05 18.47 19.96 21.47 24.61 30.59 34.68 38.83 44.88 47.51 50.87 52.51 50.85 48.95 47.6 46.79 44.17 41.98 40.17 38.54 34.74 28.71 23.11 22.66 27.69 31.53 34.81 38.24 41.15 42.5 40.5 37.61 34.13 30.21 25.1 23.59 26.08 29.18 31.83 34.38 36.04 38.48 42.79 47.23 50.32 51.34 51.16 49.29 46.34 45.68 47.18 45.27 45.9 48.28 47.68 47.18 46.42 47.58 44.96 47.58 49.71 51.33 53.84 55.13 57.25 60.27 61.8 63.47 66.87 71.04 76.06 83.4 90.34 94.04 97.67 101.4 104.5 107.3 107.8 107.1 106.3 105.6 104.9 102.4 100.1 99.36 99.29 100.9 102.2 104.7 106.3 109 110.8 111.2 110.3 107.5 103.7 98.93 91.76 84.75 76.23 70.83 68.16 64.09 59.29 56.96 56.32 57.08 57.75 57.81 57.82 57.78 58.29 59.37 58.99 59.26 59.58 59.62 58.72 59.43 58.64 58.51 58.06 57.29 55.54 53.39 52.6 52.25 52.03 51.65 49.81 49.29 46.93 43.86 41.29 37.37 33.02 29 24.81 20.85 17.64 14.46 10.98 12.88 18.31 22.05 26.52 31.91 38.31 43.25 46.87 45.69 41.7 35.83 34.8 37.48 39.37 40.78 44.22 45.22 45.84 45.26 43.37 41.4 39.2 35.6 31.69 27.68 23.98 20.38 17.48 14.81 12.56 10.17 8.923 8.038 6.991 6.488 4.735 4.437 3.493 3.389 2.722 2.733 3.121 3.806 4.647 4.302 4.93 4.238 1.984 1.763 1.992 2.024 2.038 2.063 2.002 1.934 2.114 2.656 2.98 3.834 4.625 5.188 5.543 5.745 6.008 6.137 6.523 7.019 7.507 8.292 9.201 10.36 11.36 12.34 13.4 14.67 16.3 18.03 19.88 21.89 24.47 27.83 30.68 33.28 34.36 34.47 32.55 29.68 26.8 24.49 23.48 24.67 26.26 27.72 30.45 34.29 38.33 40.8 42.64 44.55 45.52 45.3 44.94 44.44 42.44 39.9 37.32 34.83 32.31 30.28 29.19 29.42 29.91 31.76 36.25 40.18 42.63 43.66 44.12 43.79 42.93 43.69 45.39 48.54 50.36 52.43 52.84 52.43 52.48 51.95 51.33 52.39 52.98 53.73 55.37 58.12 59.6 60.46 62.51 66.56 70.4 70.33 69.8 68.03 67.21 64.38 59.87 55.11 51.18 48.54 47.1 47.1 47.03 46.29 45.25 44.46 44.36 45.57 48.16 50.44 51.05 52.17 54.99 58.04 60.83 63.06 64.15 66.31 69.18 70.93 74.19 76.67 78.67 80.86 84.25 90.18 95.89 101.8 104.6 109.5 110.4 110.5 106.7 101.1 95.32 90.05 85.83 83 80.36 78.75 81.57 84.26 88.47 93.14 95.51 94.5 89.31 86.59 83.97 81.03 79.36 79.26 79.86 79.13 77.43 74.83 69.36 64.36 64.18 63.31 63.4
18.57 13.49 9.706 9.081 10.5 10.22 11.59 15.95 20.29 24.49 28 28.78 27.71 25.68 27.68 31.92 38.33 46.82 54.47 61.43 68.79 74.97 78.54 78.85 75.39 70.67 64.08 57.21 50.98 44.08 39.57 35.49 33.86 31.87 29.43 27.37 24.56 20.23 19 17.64 13.22 14.11 18.12 21.92 23.04 22.88 24.98 29.05 30.17 30.36 28.26 25.17 20.92 17.17 13.5 10.96 11.51 13.76 14.82 15.91 17.26 20.61 22.27 25.64 30.2 34.41 40.25 46.92 49.03 49.93 48.35 45.17 43.07 42.16 39.84 37.63 36.7 35.33 32.65 27.55 23.2 23.68 28.85 31.94 35.14 38.98 42.13 43.44 42.97 40.23 37.62 33.96 27.58 26.18 24.45 25.95 28.59 31.13 33.67 36.83 39.09 42.67 46.12 46.02 45.47 44.9 42.64 41.26 42.21 41.23 42.36 42 42.96 43.58 44.03 46.47 48.6 50.87 53.48 55.96 56.71 58.52 59.91 61.19 63.38 66.9 70.5 73.53 77.9 83.04 87.89 91.01 93.12 97.06 100.1 103.6 106.8 107.4 108.9 109.6 110 107.9 106.7 105.9 105.5 106.8 107.9 109.3 109.1 109 108.8 107.5 106 104.6 102 98.6 92.69 86.29 80.32 74.88 69.78 63.61 57.74 52.99 52.36 50.19 50.46 50.84 51.25 50.98 51.98 52.75 52.45 53.05 54.56 54.58 54.57 54.7 56.34 58.09 58.47 58.02 57.87 56.82 56.05 56.14 55.79 54.44 53.44 52.65 50.41 47.33 43.55 39.56 35.06 30.72 26.13 21.28 17.54 14.55 11.51 10.62 16.26 18.21 21.98 26.99 34.19 39.49 43.56 42.76 38.95 32.38 30.29 32.7 33.46 36.4 40.2 43.61 44.54 44.06 42.79 41.07 38.79 35.46 32.1 28.44 24.4 21.22 19.05 15.68 12.81 10.25 8.591 7.822 7.147 7.17 6.159 5.606 5.251 4.161 3.925 3.05 2.78 3.977 4.344 5.41 4.429 2.196 1.603 2.137 1.944 1.888 1.86 1.839 1.877 1.867 1.561 2.272 2.965 4.13 5.395 5.933 6.461 6.771 6.7 6.54 6.815 7.28 7.755 8.668 9.709 11.05 12.39 13.12 14.15 15.4 16.95 18.7 20.72 22.95 25.65 28.7 31.29 34.37 36.18 36.7 34.66 31.29 28.42 26.19 25.14 26.38 28.21 29.51 32.3 35.64 39.32 42.74 45.04 47.22 48.18 48.15 47.53 46.6 44.61 41.81 39.17 36.71 34.17 31.43 29.46 30.21 32.49 35.87 40.88 44.69 47.65 48.78 49.59 48.48 46.95 46.62 48.31 52.97 56.32 57.34 59.48 59.68 59.67 59.98 59.42 59.36 59.39 59.02 59.76 59.47 60.32 59.58 60.45 63.22 67.08 69.2 70.59 70.8 70.33 68.79 67.38 62.11 57.64 54.08 51.31 51.97 52.15 52.41 51.1 48.35 48.36 49.56 51.05 52.73 55.47 59.17 62.41 65.6 67.87 70.38 72.52 74.69 76.13 78.08 79.71 82.1 83.69 86.58 89.78 95.15 99.9 104.4 107.8 110.5 109.1 107.9 102.7 96.03 90.5 85.9 82.21 78.69 75.88 75.85 78.85 81.78 87.47 91.15 91.24 90.35 87.3 82.3 78.04 75.8 74.43 74.46 75.42 75.14 74.01 68.07 60.83 54.77 54.61 56.49 57.35
19.64 14.14 9.672 9.943 12.84 11.3 9.937 13.19 17.63 19.92 20.41 20.74 22.76 22.24 27.26 33.53 41.01 47.04 54.02 61.1 67.71 73.51 78.43 78.86 76.03 71 64.61 57.96 52.06 45.67 39.91 35.12 31.48 27.53 26.15 22.56 19.6 17.76 16.56 14.46 12.24 14.26 19.68 22.87 25.3 26.67 28.6 30.68 33 33.69 31.35 26.39 22.97 19.65 17.75 15.2 12.11 12.46 16.54 19.12 20.9 22.25 21.92 25.08 27.96 30.7 35.82 42.49 48.36 49.19 45.91 41.83 38.78 37.34 35.35 32.61 30.08 29.32 27.8 25.8 22.2 26.67 29.87 32.68 35.74 39.83 43.56 46.18 44.78 42.86 40.29 36.86 32.27 30.56 26.71 24.41 26.92 27.07 29.7 33.05 35.91 38.23 40.4 41.7 39.18 38.17 38.73 36.87 37.97 38.59 39.93 42.36 44.21 45.47 48.79 51.11 52.78 54.1 55.81 57.56 58.89 60.48 61.91 63.77 66.63 68.04 70.17 71.5 75.89 80.85 85.68 84.9 88.39 91.92 95.17 98.81 101.8 105.9 109.1 111.8 112.8 112.6 112.4 112.5 111.5 110.8 111.2 109.6 107.6 104.7 102.4 100.4 99.76 98.71 98.27 96.06 91.86 88.31 82.29 77.6 73.44 67.58 57.96 53.52 50.36 49.21 48.32 47.49 45.59 45.43 46.23 46.52 46.71 47.72 48.53 48.69 48.76 49.62 51.53 54.37 56.53 57.11 56.95 56.92 57.57 58.1 57.84 57.17 56.39 55.4 52.62 48.58 45.28 40.66 36.47 32.08 27.11 22.41 18.68 15.76 12.04 10.15 13.6 16.05 19.46 24.54 31.92 37.2 40.17 40.03 35.94 30.74 26.49 27.59 29.23 32.55 36.16 39.55 41.19 40.87 39.87 38.37 36.35 33.87 31.03 27.76 24.56 21.66 18.99 15.96 12.76 10.96 8.774 7.674 6.709 6.483 6.358 5.975 5.798 5.103 4.641 4.206 4.175 3.572 4.32 4.463 2.829 2.009 1.717 1.788 1.737 1.842 1.867 1.807 1.795 1.944 1.548 2.947 4.644 5.953 7.482 8.12 7.884 7.738 7.596 7.335 7.205 7.605 8.174 9.106 10.19 11.43 12.9 13.42 14.76 16.15 17.6 19.55 21.65 23.8 26.29 29.62 32.48 35.51 37.74 38.58 36.46 33.42 30.29 27.43 26.84 28.22 30.03 31.43 33.92 37.38 41 44.39 47.48 49.69 50.87 50.94 50.47 48.55 46.6 43.76 41.03 38.7 36.32 33 31.31 31.88 35.44 40.38 45.03 49.05 52.18 54.25 55.2 56.83 55.38 54.17 56.51 59.98 59.9 59.78 61.02 65.76 66.41 66.77 66.74 66.4 65.85 65.04 62.77 59.42 59.44 57.58 57.96 58.74 61.14 64.53 67.33 69.29 70.05 70.44 69.48 68.08 64.69 60.33 58.08 59.36 58.3 56.27 54.47 51.96 52.55 55.17 57.52 60.56 65.38 68.48 71.35 72.93 75.62 77.41 78.84 80.49 82.3 84.42 85.92 87.25 89.04 90.41 92.21 96.98 101.8 105 108.9 110.9 107.9 104.7 98.14 91.58 86.71 82.59 78.68 74.92 71.91 72.65 75.21 81.03 86.32 89.78 89.85 90.54 86.28 80.93 75.3 71.12 68.95 68.2 69.46 69.47 68.01 60.37 52.62 48.35 49.88 51.51 51.7
19.61 14.72 10.73 9.875 14.01 14.39 13.64 12.03 12.78 15.6 17.17 17.13 16.9 20.92 29.4 37.13 42.03 47.02 53.07 60.24 66.16 71.52 76.53 78.1 76.31 71.55 65.59 60.13 54.5 48.91 43.51 39.21 34.58 32.98 29.13 24.71 22.72 20.41 17.45 15.79 14.73 14.9 18.71 23.92 27.9 30.13 31.89 33.82 36.28 35.98 34.07 30.72 26.12 23.84 21.59 17.86 14.59 12.87 15.58 20.42 23.55 26.17 28.19 29.82 31.76 34.3 37.46 42.43 47.93 49.43 46.66 42.77 39.76 37.61 35.02 33.21 31.79 30.67 29.4 27.18 25.4 25.41 28.75 32.92 35.76 39.65 43.96 46.66 46.73 45.47 42.98 39.75 37.73 36.02 32.48 29.5 27.13 28.53 27.45 28.89 31.99 35.41 37.4 37.44 34.79 35.8 36.15 38.66 40.38 41.88 43.82 45.74 47.12 48.26 50.51 52.11 53.21 54.59 55.64 57.53 58.4 59.82 61.58 62.61 64.81 66.32 67.83 68.27 71.88 77.22 78.58 79.02 81.8 86.05 89.11 91.67 95.15 101.3 106.9 110.9 113.7 114.9 115.7 115.1 113.9 113.1 110.2 106.4 101.5 97.5 94.44 91.8 91.22 91.33 92.54 92.78 90.68 88.68 84.7 80.17 76.05 71.47 62.9 57.59 53.54 50.18 48.22 44.65 39.37 38.79 39.03 38.75 40.75 42.64 42.97 43.2 43.04 43.83 46.02 49.24 51.45 52.39 53.25 54.41 55.75 56.65 56.15 56.31 56.13 55.35 52.36 49.52 45.97 41.16 37.43 32.7 27.86 23.67 20.01 16.57 12.09 9.524 11.25 14.89 18.79 23.44 29.09 34.09 37.52 37.38 33.69 29.62 25.47 23.91 25.93 28.71 32.09 34.94 36.24 36.02 35.24 33.77 32.03 30.33 27.41 24.32 22.13 20.42 17.96 15.03 12.36 11.02 9.291 7.739 6.957 5.942 5.527 5.152 5.156 4.896 4.75 4.502 3.958 2.895 2.308 1.936 1.434 1.602 1.879 1.653 1.885 1.998 1.823 1.754 1.571 1.588 3.007 4.78 6.574 8.27 9.841 10.68 10.47 9.427 8.927 8.502 8.256 8.233 8.668 9.609 10.66 11.98 13.33 14.1 15.04 16.3 18.14 20.42 22.45 24.5 27.57 30.87 33.6 36.61 39.37 40.23 38.5 35.35 32.12 28.72 28.25 29.51 31.95 33.71 35.58 39.11 42.75 45.83 49.16 51.75 53.45 53.85 52.81 50.52 48.7 45.42 42.99 40.87 38.19 35.57 34.77 35.79 39.56 43.92 48.39 52.38 55.79 58.87 61.47 62.33 62.56 61.92 60.08 59.99 60.06 59.55 61.75 66.47 69.81 70.27 69.38 70.05 70.86 69.12 65.55 60.25 57.48 55.32 54.55 55.09 56.6 59.03 62.45 65.19 67.71 69.52 70.43 70.7 69.84 67.8 69.14 66.22 67.21 63.41 59.01 55.39 60.79 62.71 69 70.65 73.01 74.62 77.21 79.28 81.78 83.44 85.46 87.21 89.21 89.21 89.95 90.64 90.23 90.03 90.87 92.61 96.69 102.5 107 107.6 105.4 100.2 94.08 87.98 83.23 79.26 74.54 71.39 69.64 70.25 75.65 81.4 86.66 90.41 90.1 89.38 88.49 81.1 74.94 68.01 62.76 60.26 60.05 59.51 56.47 54.14 49.91 50.07 49.65 49.54 49.67
17.21 13.74 10.35 11.14 14.87 18.46 19.34 17.78 16.57 16.12 16.85 20.69 23.23 22.32 29.25 35.39 40.72 45.12 51.25 57.56 63.34 68.94 73.61 75.72 76.57 73.16 68.94 63.51 57.05 51.2 47.7 43.38 38.92 35.75 32.69 29.35 25.52 19.99 18.49 18.7 17.04 13.36 18.34 22.46 27.19 31.62 34.59 37.15 39.51 38.82 37.14 34.63 30.9 27.29 23.43 20.32 17.1 14.14 13.29 18.71 22.3 25.83 29.39 33.3 36.45 39.01 42.17 45.84 49.4 50.13 49.19 47.28 44.42 42.51 39.45 37.7 35.83 35.68 34.45 31.97 28.47 26.16 27.55 31.95 35.35 39.25 43.59 46.74 48.42 48.2 46.35 44.42 43.08 40.48 37.56 35.26 32.78 30.9 29.11 28.24 28.77 32.69 34.98 34.79 33.07 35.36 39.5 41.05 41.34 43.04 44.39 46.4 47.18 49.42 50.08 51.72 52.17 53.24 54.02 54.67 55.96 57.19 58.12 59.65 62 63.75 63.86 65.24 68.36 72.73 71.77 73.82 76.45 81.16 82.47 85.24 91.34 97.65 103.6 109.2 111.1 114.3 114.8 113.5 111.9 109.8 106.5 101.4 96.64 89.09 85.61 83.02 81.81 82.62 84.03 85.44 86.67 85.56 86.41 82.17 78.34 72.42 64.72 61.39 56.59 53.12 49.86 47.63 43.56 40.44 37.03 35.93 34.55 36.54 37.57 38.28 38.23 39.06 40.73 43.69 45.48 47.09 48.48 49.9 51.3 51.07 51.65 52.12 52.14 52.05 50.48 47.75 45.92 41.4 37.78 33.12 28.44 24.23 20.63 17.03 13.18 9.496 10.16 13.22 16.72 21.04 25.98 30.5 33.94 35.45 33.15 29.43 25.98 23.22 22.46 24.62 27.54 30.46 30.38 30.04 29.76 28.22 26.4 25.13 22.72 20.45 18.78 17.59 15.87 13.77 11.33 10.38 9.413 7.934 7.28 6.03 5.137 4.927 4.854 4.663 4.509 3.894 3.425 2.64 2.096 1.869 1.818 1.745 1.656 1.979 1.973 1.916 1.77 1.496 1.505 2.531 4.377 6.321 8.34 10.27 11.99 12.95 12.29 11.24 9.902 9.512 9.285 9.338 9.782 10.48 11.59 12.97 14.14 15.15 15.95 16.77 18.5 21.28 23.65 25.62 28.45 31.4 34.52 37.86 40.88 41.73 40.15 37.42 34.14 30.93 29.29 32.02 34.79 36.91 38.47 39.89 44.69 47.81 50.85 53.81 56.23 56.18 54.88 53.27 50.37 47.56 45.79 43.11 40.2 39.43 39.39 40.29 43.23 46.92 50.37 54.13 59.38 62.7 64.85 65.77 65.34 64.62 62.81 60.03 60.7 59.95 61.69 64.01 67.02 67.79 68.68 69.22 69.42 68.89 62.86 56.92 54.52 52.92 51.54 51.73 52.12 53.72 56.65 60.1 63.59 65.84 67.17 68.93 70.01 70.99 70.42 70.69 70.2 68.81 67.28 65.34 67.16 70.99 73.68 76.07 78.89 80.17 82.27 84.87 86.87 88.64 89.46 89.65 90.15 90.16 90.4 89.86 89.03 88.46 87.94 88.22 89.94 95.32 98.63 101.6 101.7 97.53 91.22 84.84 79.8 75.76 71.08 68.89 69.3 71.55 76 82.43 87.88 90.48 89.81 90.12 88.61 81.84 75.78 70.28 63.28 58.71 54.46 50.24 51.49 50.34 50 50.14 49.99 50.09 50.06
17.98 13.79 10.62 11.07 15.94 21.24 22.91 23.58 23.87 24.19 25.36 27.16 28.52 27.66 28.08 31.09 37.43 42.85 48.34 55.75 60.18 65.48 70.02 73.89 76.69 75.38 71.57 66.68 60.13 55.25 51.8 46.59 41.01 36.88 32.61 26.48 23.05 22.24 22.23 21.66 19.47 14.94 17.56 21.95 26.87 32.11 36.96 40.52 41.82 42.31 41.03 38.34 34.35 30.14 26.11 24.16 20.38 17.18 14.89 15.71 20.26 25.04 30 35 38.86 42.36 45.62 49.09 52.05 53.05 52.1 50.75 48.63 46 42.92 41.55 40.78 40.25 38.43 35.83 32.57 28.47 27.57 31.05 34.78 38.98 42.92 47.31 49.87 50.58 49.97 48.32 47.69 45.5 42.39 39.88 37.71 35.62 34.49 30.59 27.75 30.33 32.76 32.85 32.3 35.29 39.23 40.76 41.66 42.04 42.46 43.3 45.09 46.15 47.31 48.34 49.14 50.32 50.32 50.85 51.94 53.14 53.95 55.25 57.55 59.47 59.86 61.35 64.68 67.82 66.44 68.37 71.38 74.31 76.69 81.3 87.89 94.45 100.2 103.5 106.6 110.2 110.1 109.6 107.5 104.8 101 95.84 90.27 82.23 76.67 74.13 74.09 75.09 77.52 77.95 80.06 83.49 84.59 83.35 81 73.72 67.5 65.04 60.57 56.5 52.75 50.55 47.81 44.92 41.07 36.49 33.66 33.2 32.49 33.15 33.59 34.64 36.62 37.9 39.04 40.51 41.45 42.86 44.02 44.26 45.13 45.29 46.41 47.18 46.14 45.74 44.48 41.17 37.57 33.08 28.39 24.33 20.58 16.36 13.78 10.23 8.486 11.31 14.21 17.81 22.75 27.37 30.8 32.76 31.87 31.08 28.05 24.5 21 21.06 23.3 25.86 25.69 25.49 24.69 23.25 21.71 20.43 18.6 16.93 15.62 14.73 13.28 11.7 10.28 9.298 8.403 7.427 6.775 5.89 5.025 4.946 4.728 4.373 3.865 3.217 2.725 2.231 1.942 1.924 1.908 1.593 1.432 1.789 1.783 1.723 1.537 1.29 1.424 2.943 5.366 7.618 9.754 12.01 13.73 14.21 13.6 12.71 11.69 10.65 10.56 10.59 10.76 11.52 12.5 13.55 14.85 16.42 17.18 17.89 18.77 20.96 23.75 25.78 28.99 31.94 35.06 39.11 42.15 43.21 42.28 39.39 35.94 32.5 31.86 34.63 37.21 39.58 41.84 43.93 47.28 50.07 53.18 56.16 57.21 56.93 56.71 55.14 52.98 49.93 47.41 44.92 43.08 42.75 42.61 44.05 46.78 49.84 52.84 57.53 62.96 67.02 69.26 69.53 68.98 68.28 65.2 60.82 57.41 57.47 57.69 58 60.1 61.95 63.13 62.69 63.89 60.04 54.05 53.07 51.04 49.55 50.06 47.56 47.44 48.91 51.43 52.89 56.79 59.45 62.1 64.29 66.18 67.38 68.86 70.12 70.04 70.21 70.24 71.19 70.44 69.61 71.86 76.47 81.59 84.44 87.19 89.19 90.26 90.39 90.03 90.35 89.78 89.94 90.34 88.57 84.08 82.4 82.07 82.38 85.53 90.93 96.9 101.1 99.7 94.79 88.19 81.03 76.05 71.96 67.58 67.2 69.26 71.95 77.63 84.02 88.27 90.61 89.95 90.01 89.74 83.6 78.01 73.48 68.69 63.7 58.03 51.44 50.09 49.51 50.02 49.99 49.77 49.79 49.94
19.4 17.21 13.12 11.3 18.04 22.51 25.67 27.99 29.73 30.12 30.79 32.11 33.17 31.58 30.69 31.22 33.28 38.21 44.23 52.05 56.94 61.93 66.84 71.79 75.39 76.71 74.81 69.15 63.59 58.79 53.2 48.2 42.89 36.28 30.72 29.45 27.55 26.19 25.33 23.85 20.49 16.37 16.4 21.1 25.91 31.48 37.45 42.47 44.75 45.55 44.59 41.32 37.5 33.45 30.29 27.29 22.98 19.44 15.98 14.59 19.86 24.6 29.06 34.99 40.22 43.97 47.51 51.18 54.28 55.36 54.43 53.41 51.72 49.8 46.78 45.41 44.65 43.74 41.69 38.96 35.43 31.74 27.28 29.98 33.26 37.53 41.65 46.39 51.31 52.7 53.15 52.49 52.49 50.15 47.25 44.61 42.36 40.12 39.04 36.18 30.68 27.54 29.57 30.47 31.38 34.49 35.37 34.95 34.94 36.92 39.14 38.48 39.05 40.14 43.05 43.19 43.57 43.69 44.98 46 47.14 48.42 48.05 49.34 52.88 54.68 55.61 57.2 60.65 62.22 61.12 63.59 66.47 69.87 74.68 80.5 86.07 91.6 95.47 97.49 101.3 104.6 105.2 103.8 100.9 98.53 95.17 89.96 83.5 76.11 68.71 63.78 63.38 67.83 70.26 70.95 74.04 77.79 81.32 82.02 82.37 75.85 71.04 68.33 64.84 60.57 57.15 54.08 51.67 48.88 45.18 42.43 38.28 33.73 29.66 29.73 28.51 29.49 31.95 33.26 34.01 35.68 36.06 36.81 37.26 37.47 38.01 38.88 40.08 40.28 40.41 41.76 40.27 38.97 36.64 32.73 28.23 24.09 20.41 16.52 13.57 11.52 8.234 10.06 11.87 15.72 19.9 23.85 26.27 27.86 29.51 31.21 28.95 25.96 22.21 20.42 19.38 20.42 21 20.69 19.86 18.92 17.82 16.75 15.53 14.24 13.37 12.36 11.18 10.16 9.167 8.121 7.263 6.542 5.979 5.449 5.19 4.761 4.217 3.803 3.158 2.868 2.539 1.905 1.941 1.852 1.659 1.393 1.369 1.537 1.594 1.594 1.453 1.244 2.011 3.785 6.194 8.805 11.09 13.25 14.95 15.3 14.7 14.21 12.83 11.88 11.63 11.55 11.78 12.61 13.43 14.33 15.81 17.75 18.95 19.93 19.71 21.2 23.38 25.46 29.15 32.12 35.67 39.67 43.12 44.51 43.98 41.16 38.09 34.98 34.97 37.42 39.71 41.94 44.53 47.26 49.96 53.02 55.49 56.9 58.01 58.73 58.76 57.12 54.07 50.55 47.61 45.61 44.4 43.55 43.45 45.99 48.99 52.8 57.23 63.14 66.93 70.43 71.65 71.05 69.6 66.21 63.17 61.03 57.51 54.79 53.32 55.86 54.31 54.1 54.71 56.85 54.86 58.46 54.49 53.15 52.01 51.68 49.43 43.99 44.27 45.43 48.5 50.89 50.06 52.1 55.17 56.58 59.21 62.49 64.42 66.38 68.11 69.73 69.7 70.17 70.24 69.78 70.57 74.96 80.89 86.6 90.54 90.73 90.61 90.36 89.87 89.77 90.51 88.67 85.17 82.9 79.2 76.96 76.99 78.9 82.3 88.03 93.75 97.09 96.91 91.34 84.62 77.33 72.58 68.47 65.07 64.73 68.4 73.69 80.61 86.42 92.75 92.76 91.84 91.09 89.89 85.92 80.56 75.43 72.15 70.52 66.82 59.21 53.14 51.18 50.54 50.85 50.51 50.25 49.99
20.4 17.05 14.79 11.31 18.22 23.96 28.1 31.04 33.42 34.92 35.29 36.65 37.53 36.31 35.58 35.03 35.05 37.8 43.02 48.34 53.49 59.04 65.13 70.04 74.64 77.82 76.59 72.03 66.8 61.06 54.59 49.8 45.34 38.61 34.74 33.64 32.24 30.12 28.4 25.81 22.19 17.62 16.64 20.2 25.2 30.41 36.59 42.07 45.92 48.48 47.31 44.14 40.5 37 33.83 29.26 25.43 21.77 18.43 14.83 18.04 22.74 28.42 34.15 37.77 42.17 46.71 50.9 54.17 56.69 56.9 56.2 55.03 53.58 51.1 49.11 48.23 47.28 44.89 41.58 38.11 35.67 31.2 28.7 31.59 36.41 40.82 45.34 50.22 52.16 54.65 55.8 56.02 54.62 51.72 48.9 46.48 44.53 43.25 40.53 37.24 33.67 29.25 29.71 30.81 31.15 31.78 34.46 35.07 35.32 36.92 37.52 38.08 36.92 38.07 39.08 41.02 42.44 41.68 44.9 46.23 46.16 47.39 48.21 47.97 49.67 51.62 53.05 53.73 55.8 58.62 62.37 64.67 68.95 75.05 80.28 84.68 84.67 87.86 90.2 94.93 98.02 99.18 96.71 92.97 92.21 88.93 84.27 77.67 71.58 65 58.32 56.52 59.94 63.14 64.39 67.49 72.7 76.2 79.11 81.23 81.18 76.62 73.15 68.98 65.02 61.72 58.48 55.5 52.28 48.85 45.34 41.78 37.93 34.32 32.18 30.06 28.01 26.11 28.05 29.19 30.63 31.64 31.79 32.48 32.17 32.46 33.07 33.12 33.49 35.07 35.91 35.36 35.2 33.44 30.48 27.62 23.58 19.95 16.77 13.83 12.32 9.675 8.062 9.294 12.35 15.73 18.98 21.46 22.84 26.33 28.39 27.36 26.44 23.62 21.17 18.71 18.28 17.38 16.74 16.19 15.56 14.9 14.07 13.02 12.17 11.4 10.66 9.791 8.733 7.733 6.851 6.146 5.532 5.211 5.246 4.963 4.334 4.007 3.491 2.993 2.702 2.277 1.747 1.48 1.346 1.319 1.185 1.172 1.266 1.48 1.513 1.22 1.381 2.236 4.442 6.764 9.542 12.09 14.39 15.73 15.9 15.46 14.94 14.06 12.2 12.52 12.31 12.7 13.66 14.57 15.61 17.08 18.94 20.37 21.75 22.47 21.87 23.27 25.15 28.38 31.77 35.61 39.74 43.29 45.21 44.61 42.39 40.02 38.26 38.81 40.77 42.85 45.06 47.26 50.16 52.85 55.64 57.92 59.56 61.16 60.79 60.38 57.88 54.1 49.19 44.6 42.68 41.25 40.19 40.62 44.99 49.31 53.87 59.44 65.11 69.14 70.98 72.78 71.95 67.75 63.46 60.98 57.27 59.1 58.61 56.86 54.3 51.39 53.05 54.69 57.06 59.4 61.4 63.06 62.77 58.27 53.29 50.39 43.49 42.24 43.8 48.33 49.49 47.32 47.82 50.19 50.74 51.38 53.43 56.68 60.2 62.65 65.41 67.22 68.61 69.8 69.58 69.74 73.55 77.71 81.56 85 86.8 88.41 86.6 86.93 84.74 82.24 79.28 76.2 74.74 72.81 71.41 71.5 73.92 77.77 82.75 88.36 91.74 90.94 86.17 80.15 73.95 69.29 64.75 61.95 63.05 68.31 75.55 83.32 89.43 95.36 95.4 94.94 93.72 90.99 87.37 81.98 77.33 74.88 72.92 68.99 66.18 59.74 56.85 56.57 56.37 53.87 50.44 49.5
14.81 12.45 11.11 10.35 15.58 22.3 28.06 31.86 34.7 38.1 39.85 41.23 41.78 41.61 41.25 41.67 42.85 42.07 45.26 48.55 50.59 57.45 64.26 69.4 74.32 78.1 78.74 75.51 69.59 63.03 57.88 53.42 49.08 42.34 40.31 38.69 35.74 32.99 30.98 27.89 23.9 19.8 16.13 19.67 24.56 29.56 35 41.52 46.66 50.68 49.71 46.95 43.67 40.43 36.67 31.51 28.23 24.06 20.31 17.36 17.42 21.46 28.04 32.43 35.1 39.1 44.37 48.17 50.31 53.44 56.22 58.1 57.32 56.08 55.54 53.43 52.12 51.05 48.2 44.89 41.48 38.62 35.88 31.87 30.77 35.52 39.08 43.18 48.34 51.62 54.9 58.22 59.02 58.33 55.83 53.06 50.32 48.43 46.78 44.03 41.34 37.97 33.29 30.01 31.68 33.74 35.66 37.17 38.05 39.3 40.06 39.06 40.04 39.91 40.55 42.08 42.69 44.14 45.82 47.84 48.31 48.17 50.15 52.31 52.84 52.37 51.92 53.15 56.37 59.61 61.85 64.16 67.51 72.19 75.76 79.62 78.9 77.92 79.02 83.38 88.42 91.5 92.54 89.44 85.03 84.23 82.95 78.71 73.84 68.03 60.85 52.94 49.06 51.67 55.69 58.05 62.5 67.16 70.63 74.94 78.8 80.52 79.68 76.58 73.01 69.53 66.08 62.12 59.02 55.57 51.53 47.45 43.99 40.64 38.32 36.63 33.98 30.55 27.93 26.43 26.01 25.71 26.36 27.25 27.84 27.26 27.8 28.01 27.69 27.84 29.36 29.91 30.01 30.17 29.43 27.76 25.25 22.54 19.4 16.54 14.09 12.65 11.55 8.386 8.931 9.896 12.31 14.11 16.96 18.62 22.59 24.76 26.04 26.14 24.4 23.19 20.73 18.45 16.56 15.14 14.1 13.27 12.74 12.08 11.42 10.82 10.31 9.408 8.819 7.885 7.245 6.448 5.693 5.49 5.757 5.068 3.774 3.414 2.99 2.582 2.433 1.912 1.668 1.369 1.294 1.315 1.344 1.317 1.398 1.388 1.381 1.243 1.169 2.094 2.965 4.581 6.888 9.774 12.61 14.42 15.55 15.6 15.44 15.45 14.75 12.67 13.27 13.17 13.59 14.59 15.67 16.62 18.28 20.02 21.66 23.36 24.55 25.24 25.52 26.34 28.13 31.08 35.16 39.32 42.62 44.67 44.04 42.17 41.12 40.7 42.11 43.7 45.64 48 50.19 53.02 55.96 58.14 60.53 62.16 62.95 62.08 61.05 57.26 52.91 48.03 42.64 38.04 36.38 35.22 38.6 43.34 49.03 54.21 59.3 64.17 68.2 70.13 69.19 66.27 65.76 63.32 58.13 53 48.35 48.56 48.54 48.46 45.71 45.82 47.18 52.62 58.88 62.15 65.81 64.65 60.79 56.24 51.22 44.42 41.29 39.92 44.54 45.1 45.06 46.98 51.58 55.59 55.74 55.26 52.75 51.63 52.22 55.28 59.79 62.56 63.65 66.68 68.81 70.38 72.58 74.51 76.16 75.87 76.09 75.38 73.58 71.35 70.8 68.92 67.51 66.04 65.53 64.89 64.94 66.39 70.72 74.96 81.3 85.37 83.81 80.25 75.44 69.33 64.99 61.24 60.63 61.98 67.48 75.96 85.24 93.23 97.82 98.19 97.77 94.09 90.67 88.55 83.35 80.34 77.26 73.43 70.2 69.7 67.65 63.82 60.94 60.32 56.95 51.91 48.57
13.17 9.704 10.35 9.477 13.45 18.88 24.8 30.15 34.83 39.09 42.84 44.89 46.56 46.72 46.84 46.74 46.56 47.8 48.47 52.55 54.75 60.91 65.62 70.98 75.74 78.8 80.53 77.49 71.54 65.78 61.84 57.87 53.2 46.47 44.75 41.89 38.27 35.78 32.47 29.58 25.81 21.79 17.74 20.04 24.55 28.94 33.89 40.77 46.99 51.08 51.64 49.82 46.35 43.27 39.19 33.95 30.64 26.5 23.3 19.5 17.01 20.01 24.84 29.81 31.58 36.54 40.99 43.67 45.97 50.25 53.77 56.35 58.1 57.85 56.76 57.04 56.16 54.33 51.44 48.56 45.19 42.51 39.61 35.76 34.54 34.03 37.77 41.66 45.93 50.21 53.9 57.86 60.68 61.19 59.16 57.07 54.11 51.81 49.45 46.58 43.07 39.65 34.6 30.19 35.11 37.75 39.85 41.75 42.29 42.86 43.79 42.87 42.22 42.54 41.86 43.96 47.15 48.35 49.27 51.61 51.67 52.26 53.92 56.37 57.75 57.81 57.16 58.76 60.99 63.89 66.3 68.98 71.73 73.91 75.79 75.97 73.5 69.83 70.24 76.69 81.88 84.26 84.85 82.4 78.21 75.77 76.42 75.09 71.33 65.66 59.77 52.43 46.94 44.51 48.54 52.69 56.79 60.3 65.6 70.43 74.63 78.2 80.05 79.51 76.51 73.3 70.16 66.46 62.53 58.85 54.2 50.17 46.64 43.85 41.73 39.25 35.86 32.12 28.38 26.42 25.97 23.5 22.74 23.37 23.27 22.38 22.82 22.21 21.84 22.64 23.23 24.06 24.31 25.43 24.72 23.19 22.31 20.3 18.19 16.04 13.99 12.44 11.44 9.141 7.765 8.264 9.734 11.01 12.67 14.67 17.75 19.99 22.63 24.05 25.34 24.23 22.86 21.32 18.81 16.68 15.1 13.88 12.8 11.79 10.94 10.29 9.675 8.996 8.22 7.44 6.991 6.018 5.589 4.963 3.904 1.452 1.988 1.02 1.18 1.359 1.512 1.756 1.364 1.315 1.309 1.326 1.359 1.405 1.501 1.568 1.519 1.263 1.384 2.189 3.315 4.393 6.61 9.577 12.12 14.03 14.63 14.7 14.71 14.62 14.46 12.81 13.4 14.12 14.42 15.61 16.58 17.73 19.2 21.14 22.96 24.81 25.9 26.78 27.92 28.95 30.62 32.29 35.89 38.82 42.05 42.98 41.67 40.82 41.09 42.08 43.75 45.94 47.82 50.18 52.68 55.37 58.46 60.49 62.12 63.16 63.05 62.18 60.3 56.6 51.56 46.89 42.56 37.75 33.23 34.06 37.1 43.26 48.49 54.27 58.86 61.88 64.79 66.21 65.26 66.31 65.22 61.79 54.41 48.28 42.66 41.61 42.91 40.98 38.4 39.6 43.51 47.65 54.02 61.12 64.7 63.3 60.51 56 51.41 46.23 39.78 38.51 40.26 42.26 43.76 48.72 52.5 56.26 57.38 56.47 58.37 60.5 59.5 54.47 53.82 56.51 54.99 55.37 58.52 58.58 61.65 60.32 62.59 62.59 61.59 63.79 63.3 62.58 61.27 60.79 60.31 59.22 58.31 58.42 59.19 59.58 63.71 68.22 75.21 78.88 78.34 74.36 69.15 63.01 60.27 59.78 59.72 60.93 67.69 76.34 87.22 95.56 100.7 100 98.34 93.93 90.26 89.86 85.55 82.04 77.93 73.18 69.75 69.93 70.89 69.12 66.05 61.76 57.6 49.73 47.8
13.78 11.32 9.988 9.08 11.62 16.29 22.62 28.37 33.55 39.52 43.89 47.6 49.97 51 51.69 52.68 54.98 57.26 58.15 60.08 61.78 65.57 69.44 74.75 78.6 80.01 80.23 78.69 73.81 69.35 65.89 61.98 56.63 51.93 49.06 45.41 40.72 38.34 34.2 29.43 25.51 22.06 18.23 19.73 25.09 30.02 34.64 40.13 45.27 49.72 52.67 51.29 48.99 45.59 41.82 37.8 32.84 29.16 25.8 21.83 18.41 18.41 22.52 26.07 28.57 33.75 36.79 38.58 41.77 46.62 50.32 53.45 55.4 56.25 57.08 57.96 58.25 57.1 54.89 52.28 49.15 46.38 43.93 39.99 37.13 35.41 36.9 39.5 43.05 47.36 51.81 55.96 59.71 62.26 62.03 60.21 57.61 54.33 51.35 47.67 43.82 38.79 33.62 32.46 36.7 40.85 43.55 45.35 45.63 46.71 47.26 47.05 46.4 45.4 44.32 45.74 49.59 50.98 52.64 55.1 56.38 55.82 57.22 59.97 60.87 61.08 61.37 63.17 65.58 67.68 69.33 70.99 72.9 74.23 73.32 70.72 67.02 62.75 63.51 69.74 74.84 78.69 77.9 75.05 71.31 68.51 68.94 69.97 69.16 66.92 60.86 54.32 48 43.15 41.88 47.69 51.04 55.49 60.49 64.45 70.27 74.2 77.59 79.01 78.38 76.07 72.9 69.72 65.82 61.77 56.92 52.34 49.08 46.66 44.24 40.33 36.04 31.93 28.38 30.25 29.86 28 25.69 23.43 21.08 20.73 19.33 18.9 17.77 17.86 17.95 18.42 19.12 20.66 20.1 19.42 18.59 17.84 16.13 15.03 13.33 12.04 11.17 8.512 7.148 6.373 8.124 9.028 9.804 11.1 12.74 15.68 18.13 21.43 23.15 24.08 23.92 22.72 20.83 18.97 17.26 15.31 13.99 12.55 11.47 10.49 9.666 8.794 7.953 7.006 6.407 5.476 5.171 4.415 2.004 1.01 1.14 1.179 1.24 1.482 1.536 1.52 1.368 1.329 1.417 1.401 1.394 1.453 1.62 1.668 1.656 1.57 1.506 2.085 3.105 4.136 6.077 8.977 10.98 12.54 13.19 13.35 13.51 13.61 13.67 12.94 13.55 14.34 15.03 16.23 17.17 18.27 19.67 21.45 23.67 25.5 26.71 28.09 29.66 31.35 32.96 34.79 36.85 39.56 41.03 40.53 38.55 36.79 37.85 41.31 44.02 46.83 49.62 51.94 54.6 57.51 60.01 61.63 62.45 62.64 62.42 61.49 59.27 54.64 49.64 43.51 39.04 35.86 31.32 33.79 37.18 42.72 48.07 53.71 58.18 61.11 64.5 66.41 67.24 66.68 64.09 59.54 52.65 47.14 40.63 37.21 37.2 35.09 37.7 40.91 45.61 50.54 56.48 60.37 62.88 62.33 59.17 55.19 51.02 46.51 40.96 36.01 37.4 39.83 45.62 50.03 52.96 54.93 55.17 51.45 53.83 56.65 57.93 53.39 56.42 57.6 58.99 57.96 55.98 59.56 52.32 56.91 55.19 54.94 56.77 55.22 52.9 55.13 56.07 53.03 52.55 52.67 54.48 55.56 58.22 59.53 60.78 62.65 69.34 72.5 71.38 68.61 62.81 59.66 59.17 59.99 60.26 60.88 67.02 77.48 86.27 94.02 97.33 96.71 93.77 93.52 91.18 89.69 87.14 82.99 78.53 73.24 70.61 70 70.55 69.89 65.71 60.16 54.87 50.39 46.66
15.9 16.44 15.86 10.9 11.75 16.2 20.22 25.69 30.91 36.32 42.02 47.67 51.51 54.19 56.67 58.48 63.22 64.65 65.97 67.17 68.42 70.75 74.37 78.75 81.6 81.57 80.53 79.88 75.31 71.09 66.96 61.85 58.48 56.3 51.54 46.87 43.18 39.06 34.68 29.28 25.12 21.83 18.58 20 25.87 30.46 34.91 39.14 43.94 48.3 51.82 52.82 51.42 47.63 43.87 39.15 34.41 30.92 26.13 21.87 18.59 18.61 20.3 22.27 25.6 29.83 31.12 33.26 37.58 41.87 45.93 49.45 51.89 52.93 54.08 56.06 58.03 59.04 57.7 55.64 53.04 50.18 47.44 43.82 39.7 36.19 35.21 38.46 40.32 43.96 48.63 53.29 58.55 62.23 63.12 61.99 59.38 55.91 51.92 47.75 42.74 37.96 33.43 34.64 38.96 43.1 46.69 48.66 49 49.88 50.67 50.61 50.11 49.03 46.21 46.54 51.05 53.8 55.74 58.04 59.93 60.39 61.74 63.8 64.77 64.71 64.35 67.11 69.03 70.82 71.68 72.24 71.56 71.44 69.29 66.25 61.3 56.17 57.71 64.81 69.89 73.11 72.64 69.33 64.9 61.55 61.81 63.98 66.32 65.52 61.28 55.75 48.56 41.26 38.98 42.45 46.61 50.89 53.9 58.91 65.53 70.16 73.51 76.09 77.76 76.49 74.17 72.13 69.27 64.92 60.1 55.42 51.44 48.78 44.71 40.37 35.23 31.52 32.05 34.13 33.41 32.3 31.01 29.29 27.18 25.04 22.81 21.39 20.95 19.23 16.99 15.35 16.14 15.86 16.17 16.57 15.9 15.42 14.01 12.86 12.12 11.98 10.95 8.401 7.219 6.714 6.742 7.062 7.478 8.181 9.642 12.22 14.74 17.93 20.23 23.27 24.06 24.15 22.52 21.25 19.61 17.32 15.65 14.16 12.48 11.21 10.05 8.881 7.734 6.598 5.581 5.027 4.007 2.406 0.1682 1.345 1.362 1.329 1.249 1.309 1.291 1.263 1.294 1.405 1.435 1.398 1.417 1.548 1.703 1.728 1.764 1.5 1.381 1.665 2.556 3.806 5.586 7.618 9.537 10.83 11.62 12.15 12.36 12.68 12.76 12.04 13.46 14.32 15.25 16.37 17.28 18.33 19.75 21.43 23.66 25.58 27.7 29.3 31.1 33.22 35.11 36.81 38.78 39.34 39.97 38.5 35.16 33.12 35.58 39.96 43.61 47.2 50.27 53.32 55.68 58.22 59.46 60.73 61.26 61.74 60.75 60.14 54.94 51.03 47.36 41.97 38.15 33.16 30.21 31.3 36.58 41.99 46.78 51.61 55.7 59.18 61.57 63.18 63.9 62.62 60.3 57.15 53.03 47.95 41.79 35.45 32.16 35.17 40.2 44.67 49.01 53.2 57.39 59.7 60.28 59.47 56.74 53.76 50.07 45.04 39.22 33.9 36.36 40.26 45.24 48.91 50.15 52.36 50.73 47.73 47.7 52.95 51.67 48.94 53.72 61.22 58.02 58.91 61.24 64.13 64.8 68.69 72.3 69.79 62.58 57.72 57.51 51.72 54.03 57.71 57.76 54.92 54.06 54.26 58.91 64.54 62.26 61.16 62.82 64.94 63.6 59.65 57.37 56.69 57.54 58.7 58.92 59.04 65.88 74.93 82.81 86.11 87.14 85.86 84.34 84.35 86.53 91.65 87.94 82.81 78.55 73.43 70.2 69.37 68.91 64.04 60.04 55.83 51.61 49.07 46.6
19.87 21.59 21.96 16.15 15.83 17.25 20.23 22.93 28.24 33.78 39.24 45.07 50.61 55.94 60.01 62.37 66.23 69 71.28 72.48 74.5 76.24 79.52 82.65 85.17 86.1 84.13 80.44 75.38 69.84 65.31 61.45 59.2 53.99 50.04 45.71 41.05 36.34 29.38 26.85 24.92 21.49 20.68 21.08 23.88 29.37 34 37.98 42.35 46.88 50.55 53.53 52.55 49.53 45.68 40.46 35.01 31.11 26.24 21.61 19.76 19.61 19.86 20.2 22.04 23.65 25.7 29.11 32.88 36.64 41.01 44.76 47.69 48.67 49.71 51.8 54.48 57.85 58.9 59.06 56.72 53.79 50.52 46.43 41.29 37.38 37.31 39.54 39.93 43.15 47.13 52.51 58.37 61.95 63.57 63.44 59.59 55.46 51.34 46.26 40.83 35.88 34.04 37.86 40.98 44.51 49.17 52.27 52.86 53.31 54.19 54.04 53.37 52.11 50.23 47.81 51.62 55.76 58.96 61.96 64.1 65.36 66.17 67.85 68.45 68.61 68.85 71 72.23 72.2 71.74 71.3 69.5 66.52 64.71 61.21 56.23 51 53.14 60.54 65.48 68.77 67.77 64.38 59.43 54.15 54.28 59.17 62.63 63.82 60.71 56 50.24 44.32 37.19 37.06 41.78 45.91 49.23 54.62 60.31 65.29 69.61 72.41 75.03 75.49 73.97 73.78 72.59 68.02 63.14 58.06 53.1 48.9 43.56 39.29 34.76 33.46 36.19 37.32 37.6 36.78 35.99 34.39 31.6 30.19 27.42 26.37 25.64 23.95 21.58 19.33 17.13 16.3 15.3 15.07 13.89 13.16 12.52 11.74 11.69 12.17 10.93 8.893 7.085 8.211 7.606 7.001 6.504 7.306 8.44 9.498 11.22 14.26 16.96 20.5 23.95 24.93 24.83 23.97 22.26 20 17.4 15.86 13.96 12.35 10.72 9.282 7.925 6.566 5.229 5.449 3.803 2.391 1.283 1.026 1.111 1.282 1.868 1.235 1.189 1.243 1.294 1.347 1.399 1.476 1.559 1.603 1.665 1.773 1.63 1.363 1.301 1.614 2.292 3.728 5.184 6.739 8.285 9.78 10.44 10.99 11.14 11.62 11.77 12.15 12.83 13.82 14.93 15.88 16.78 18.15 19.75 21.79 23.91 26.26 28.51 30.34 32.69 35.02 37.31 39.03 39.97 39.01 37.92 35.75 32.32 29.87 33.22 38.11 41.68 45.55 49.69 52.27 55.15 57.13 58.04 58.64 59.05 58.88 58.38 53.64 50.35 48.08 45.34 41.58 38.02 33.39 29.5 29.81 34.97 39.69 44.41 48.78 52.71 55.43 57.6 58.93 59.63 59.3 57.62 54.51 48.94 42.23 38.79 33.24 30.82 36.67 42.38 46.75 50.22 53.97 55.59 56.49 56.6 55.99 53.65 50.89 45.39 41.19 36.62 33.55 35.83 39.3 42.44 45.53 45.49 46.61 45.31 43.53 46.14 47.69 45.11 47.27 50.7 55.26 52.78 52.8 57.57 62.5 68.94 71.91 71.73 76.03 73.5 70.31 62.03 59.65 65.23 62.77 62.7 60.36 52.63 52.77 60.83 65.02 64.45 52.62 50.68 54 53.25 51.87 54.84 52.87 54.97 57.67 57.57 56.57 61.43 65.45 72.02 76.24 78.1 76.22 74.14 73.15 74.23 82.78 87.33 82.57 78.15 73.48 70.1 66.35 63.85 59.39 54.87 51.99 50.07 48.34 46.15
24.25 25.59 26.52 22.47 20.05 20.46 20.4 21.46 25.42 31.06 36.48 41.79 47.34 53 59.9 64.47 68.8 72.64 76.4 78.56 80.03 81.49 84.3 86.86 89.03 88.57 84.23 79.8 73.68 67.87 62.72 58.8 55.51 51 46.39 41.99 37.37 32.46 24.68 22.96 22.16 20.58 22.64 24.99 24.84 26.15 31.58 35.88 40.52 45.15 49.01 52.48 53.11 50.62 45.63 39.86 35.57 31.44 26.07 20.15 20.23 23.18 22.82 22.24 21.94 21.61 22.87 23.89 27.32 31.51 35.33 39.61 42.05 43.57 44.55 46.58 49.8 55.18 59.56 60.17 59.29 56.56 53.11 47.74 42.09 39.13 41.91 43.92 45.32 45.86 48.84 54.09 58.78 62.78 63.86 62.28 59.02 54.74 50.16 45.51 39.61 35.16 37.28 40.65 42.79 46.62 51.29 54.51 56.79 58.01 58.42 57.96 56.62 55.59 53.6 50.05 52.23 57.46 61.36 65.13 67.77 69.33 70.59 71.59 72.09 72.39 72.48 73.07 72.02 70.75 70.55 68.31 65.44 61.81 58.98 56.94 51.41 48.1 49.37 56.68 61.79 64.17 63.58 60.41 54.92 49.71 48.06 54.9 59.03 61.23 60 55.78 50.68 45.55 40.07 33.7 37.91 40.77 45.64 50.61 55.5 59.92 64.31 67.98 72.09 73.81 73.2 74.08 76.3 70.54 65.45 59.84 54.44 48.97 42.77 38.73 35.7 37.68 39.95 41.85 42.27 41.83 41.03 38.32 35.91 34.24 30.73 30.66 29.83 28.12 25.26 23.43 21.07 18.16 15.51 15.27 13.96 11.97 12.4 12.65 13 12.55 12.25 11.42 10.14 10.34 9.814 7.641 7.241 6.962 7.868 8.774 9.72 12 15.01 18.92 23.68 26.21 26.94 26.72 25.12 22.46 19.81 17.72 15.67 13.42 11.51 9.787 8.244 6.775 5.841 4.818 3.456 2.485 2.3 1.333 1.164 1.12 1.512 1.089 1.165 1.185 1.246 1.338 1.448 1.459 1.445 1.431 1.457 1.501 1.444 1.214 1.371 1.632 2.462 3.744 4.816 6.285 7.742 8.984 9.7 10.01 10.25 10.68 11.05 11.52 12.37 13.3 14.26 15.23 16.46 18.27 19.87 22.1 24.58 26.96 29.38 31.8 34.3 36.78 39.4 40.62 40.11 38.09 35.39 33.15 29.66 28.41 30.79 34.86 39.47 42.83 46.23 49.83 51.42 53.39 54.93 54.92 55.56 53.06 50.52 48.62 47.87 44.21 42.64 39.86 36.62 32.02 27.14 29.17 32.46 37.15 41.59 45.9 49.4 51.8 52.73 53.85 55.01 53.98 51.67 47.43 44.42 41.04 35.94 29.92 32.35 37.23 42.51 47.07 50.21 51.9 52.66 51.36 50.1 49.29 45.31 42.05 40.95 38.71 33.8 33.92 36 39.76 41.35 41.97 40.91 40.61 40.63 36.73 38.92 39.7 39.91 43.49 48.08 49.85 46.92 47.54 51.82 57.25 61.31 65.42 68.07 67.69 66.26 65.61 57.07 50.39 54.74 60.1 59.26 54.29 50.35 55.98 60.96 65.49 70.07 65.03 60.97 58.35 56.5 55.68 53.88 53.35 52.04 55.49 53.06 56.26 59.68 63.04 62.96 65.9 65.69 66.52 68.38 69.05 69.1 77.75 89.72 84.03 79.07 74.52 68.74 63.99 58.83 54.59 51.96 49.84 49.62 48 46.01
29.36 28.95 29.57 27.44 21.82 18.94 19.49 19.66 22.38 28.11 33.66 38.41 43.63 48.82 57.29 62.88 69.04 73.34 77.95 82 84.53 86.01 88.64 89.95 90.2 89.8 83.45 76.88 71.34 65.64 60.37 55.87 51.75 47.28 42.67 37.78 33.56 29.89 24.33 20.69 20.63 19.81 26.39 29.75 30.09 27.16 30.09 32.55 38.56 43.5 47.46 51.3 52.72 50.58 45.98 40.25 35.63 31.31 25.83 22.27 21.09 26.32 27.83 27.16 26.41 26.32 24.5 22.92 24.72 26.46 28.85 32.18 35.31 36.65 38.55 40.82 46.58 52.54 58.28 61.49 61.48 58.78 55.1 49.66 44.33 41.48 45.41 48.03 49.94 51.01 51.78 56.35 60.93 63.41 63.7 60.99 57.33 52.99 48.46 44.19 39.16 35.15 37.01 40.83 43.72 47.83 52.75 56.67 59.62 61.3 62.21 61.79 60.28 57.73 56.13 53.64 52.87 57.43 63.06 67.3 70.51 72.94 74.67 74.88 74.57 74.32 73.99 70.75 68.97 66.93 65.83 64 61.34 57.78 53.74 51.48 46.75 44.01 46.35 53.58 58.17 60.99 59.96 56.52 52.24 47.79 44.11 51.05 56.03 58.67 58.68 55.47 50.97 46.29 40.83 34.01 34.34 36.48 41.88 47.02 49.92 54.41 58.73 62.78 67.85 71.09 72.97 75.17 75.27 71.35 67.23 61.57 55.61 49.68 44.87 40.61 36.9 41.43 44.01 46.45 47.07 47.21 46.22 43.66 41.47 38.91 36.81 36.31 34.92 32.65 29.88 27.1 24.21 21.36 18.93 18.61 18.13 16.44 16.07 16 15.7 15.21 14.75 13.86 12.67 11.56 10.85 9.173 7.206 6.932 8.372 7.297 8.584 10.74 14.03 18.57 23.5 27.04 29.06 29.11 27.96 24.99 22.39 20.02 17.49 15.32 12.88 10.63 8.666 7.097 5.77 3.61 2.519 2.697 2.468 1.885 1.318 1.136 0.8356 0.7683 1.254 1.129 1.1 0.9856 1.292 1.332 1.409 1.375 1.365 1.307 1.22 1.571 1.77 2.101 2.801 3.868 4.687 5.93 7.317 8.173 8.745 9.069 9.528 9.954 10.35 10.84 11.71 12.64 13.55 14.88 16.39 18.38 20.3 22.58 25.09 27.67 30.34 33.15 36.24 38.5 40.48 40.6 38.71 35.76 32.76 29.06 24.7 25.53 29.5 34.27 38.11 41.55 45.77 46.31 47.34 47.09 48.49 47.51 46.48 44.2 41.3 40.47 38.9 39.25 35.26 32.87 30.95 28.31 25.59 26.66 30.37 34.8 38.82 41.72 44.75 45.77 45.85 45.77 47.11 46.98 46.9 45.83 42.53 37.58 32.48 31.11 32.22 37.27 41.06 45.17 47.94 48.26 46.46 44.38 42.97 40.78 39.39 39.44 38.43 35.13 32.42 32.82 35 36.73 37.95 37.65 36.3 35.05 36.01 37.18 37.78 38.65 39.47 40.78 44.35 44.65 42.79 42.57 46.35 49.68 49.6 54.23 57.57 60.35 56.84 54.9 52.93 48.56 48.61 53 54.21 49.93 50.21 54.25 58.96 63.54 66.75 69.76 69.62 70.21 66.78 63.26 60.56 55.85 54.08 53.27 53.86 58.16 63.34 65.08 61.98 59.12 59.79 62.8 66.6 71.02 72.39 75.76 84.97 86.28 80.49 75.99 69.87 61.08 55.21 50.72 50.98 51.13 49.91 48.2 45.49
34.8 34.26 33.81 31.65 25.49 22.23 18.93 19.49 21.13 24.95 30.81 36.33 40.91 45.16 52.78 59.44 65.26 71.39 77.81 83.44 87.31 89.39 90.49 89.99 89.94 90.19 82.17 74.84 69.11 63.75 58.23 53.67 47.93 43.55 39.16 34.35 30.32 27.42 24.15 20.74 19.32 22.69 29.32 33.24 33.72 32.47 31.4 32.58 36.6 41.47 46.34 50.32 52.13 50.2 45.96 39.61 34.78 30.31 24.31 22.77 21.77 27.89 30.38 31.38 31.23 30.91 30.13 28.44 26.49 26.8 25.72 28.63 30.8 33.57 37.63 43.25 46.74 52.93 58.95 62.76 62.98 61.22 57.04 52.02 46.15 44.6 48.31 52.16 52.82 55.43 57.41 59.06 62 63.01 61.7 58.68 55.14 51.06 46.96 42.05 37.46 36.66 37.4 39.39 43.21 48.8 53.84 58.1 62.1 64.22 65.41 64.89 64.29 61.29 60.63 56.69 55.67 59.33 64.77 68.78 72.68 76.3 78.31 77.38 76.06 73.71 69.91 66.38 62.84 60.86 59.24 58.31 57.16 53.8 49.93 46.22 42.65 41.54 44.18 51.18 55.04 57.58 56.24 53.47 49.85 43.17 43.77 47.52 52.28 56 56.98 55.74 51.56 47.37 42.28 36.04 33.22 32.89 37.63 42.32 44.88 48.44 52.98 57.84 62.98 68.21 70.37 72.95 73.91 71.88 68.93 63.85 57.79 51.8 47.17 42.19 41.65 46.37 48.43 50.97 52.93 52.56 51.12 49.05 46.61 42.99 41.79 41.58 40.14 37.35 34.3 30.58 27.07 23.89 22.69 22.48 21.87 20.7 19.53 19 19.12 18.36 17.34 15.89 14.33 12.83 11.26 10.02 7.579 7.075 7.215 6.774 7.915 9.706 13.43 18.31 23.18 27 29.82 30.3 29.9 27.91 24.88 22.4 19.64 16.73 13.96 11.32 8.804 6.965 4.882 3.139 2.533 2.265 2.028 1.545 1.376 1.186 0.8506 0.8358 1.139 1.066 0.9324 0.9687 1.16 1.099 1.171 1.246 1.207 1.166 1.721 2.018 2.637 3.326 3.795 4.266 5.139 6.007 6.918 7.784 8.207 8.435 8.739 9.153 9.741 10.27 10.96 11.95 12.93 14.65 16.56 18.4 20.44 22.93 25.62 28.11 31.19 34.36 37.53 39.39 39.97 39.21 36.51 33.16 29.83 26.41 22.31 23.48 28.16 33 37.04 39.46 42.06 42.96 44.76 43.93 41.85 39.41 39.11 37.53 36.65 35.84 36.29 35.25 33.89 33.06 30.01 26.77 24.51 26.33 28.99 32.71 35.77 38.62 40.44 39.42 40.63 40.27 41.12 42.77 43.21 41.72 38.65 34.26 29.54 28.05 33.09 36.96 40.2 41.63 41.43 40.63 38.78 36.46 35.32 34.8 34.41 33.6 32.15 31.39 31.16 31.49 33.07 32.58 32.04 31.88 30.77 32.44 34.28 34.54 35.73 36.74 38.29 39.28 40.65 40.69 41.14 42.99 45.61 49.58 51.44 53.42 55.87 55.75 55.58 54.71 50.46 46.27 45.96 47.92 48.79 47.01 49.71 52.81 55.23 58.19 59.79 61.15 63.12 63.89 62.97 61.2 57.38 52.69 54.8 53.87 56.87 59.75 66.98 68.99 66.15 62.8 61.77 65.75 69.98 73.91 78.73 80.44 83.64 84.64 82.66 77.64 70.2 58.65 53.44 52.36 53 52.75 50.46 48.56 45.72
40.85 40.42 39.36 36.14 31.12 26.75 25.21 23.9 19.92 25.76 28.04 33.74 39.1 43.85 49.14 56.33 62.78 69.27 76.54 82.99 88.27 90.23 90.13 89.82 90.01 88.97 79.88 73.44 68.67 63.29 58 52.58 47.31 42.09 36.6 32.25 28.84 26.49 24.48 20.82 19.98 24.5 31.53 35.14 36.94 37.23 35.67 34.67 36.06 39.21 44.9 49.48 51.92 49.66 45.7 38.46 33.86 29.35 23.39 22.24 24.8 29.61 32.72 34.94 35.18 35.57 34.47 32.06 31.05 31.99 30.14 28.01 29.94 34.58 41.1 45.51 50.58 55.7 60.43 64.82 65.26 63.45 59.22 54.14 47.66 47.27 51.3 55.7 56.68 58.76 60.8 62.17 61.89 60.73 59.62 56.42 52.52 48.32 43.99 39.2 38.83 38.84 41.1 39.42 42.74 47.33 52.93 57.91 62.41 66.74 68.83 68.75 67.8 65.3 64.59 59.97 58.85 62.72 67.38 71.02 74.45 78.42 79.1 78.12 76.27 71.38 65.43 60.08 56.03 53.65 52.53 52.23 52.58 50.72 46.27 42.69 38.91 39.44 43.62 49.24 52.36 53.99 52.62 50.14 47.3 40.33 41.07 44.2 49.6 52.16 55.06 54.31 52.3 48.41 43.62 38.65 33.17 29.72 33.19 36.86 40.21 43.9 49.79 54.21 58.84 63.76 66.72 68.84 70.61 71.86 70.2 65.86 61.03 55.16 49.85 45.45 46.37 51.04 53.18 55.34 56.94 57.34 56.15 53.41 50.21 49.18 48.4 47.55 45.17 41.55 37.44 33.47 30.53 28.37 27.28 27 25.6 24.64 23.31 23.06 22.69 21.64 20.24 18.34 15.84 13.99 12.01 10.49 8.286 6.996 7.042 7.18 7.478 8.974 12.41 17.18 22.1 26.46 30.39 31.33 31.47 29.86 27.25 24.6 21.41 18.22 14.89 11.84 8.757 6.472 3.889 2.099 1.962 1.836 1.86 1.429 1.224 1.152 0.8642 1.213 1.12 1.064 0.9037 0.9729 1.114 1.121 1.071 1.151 1.202 1.508 2.185 3.254 4.263 4.849 5.473 6.052 6.102 6.732 7.07 7.205 7.568 7.636 7.902 8.285 8.939 9.667 10.19 11.08 12.4 14.33 16.38 18.72 21.04 23.64 26.56 29.24 31.65 33.93 36.97 38 37.02 35.51 33.97 32.6 27.99 24.13 20.82 23.01 26.17 29.82 33.21 35.49 35.96 37.01 37.97 37.41 36.11 34.07 33.8 33.51 32.2 30.68 29.64 29.69 29.51 29.44 28.06 24.99 23.42 24.75 26.47 30.44 33.25 33.51 34.63 33.24 35.1 35.1 37.2 38.58 37.65 36.86 35.27 31.33 28.17 28.46 31.96 35.71 37.51 38.02 39.44 38.31 36.89 31.43 28.39 28.17 29.53 29.32 29.66 30.16 30.23 30.24 29.99 30.66 30.91 31.4 33.18 33.43 32.74 33.1 34.15 35.03 35.33 35.42 36.41 37.01 37.76 40.1 42.27 43.85 45.67 47.59 48.9 49.78 50.61 47.62 42.56 42.04 43.22 44.08 42.56 45.14 46.38 47.36 50.19 52.02 52.73 53.58 55.91 56.37 54.62 52.03 52.54 53.7 56.47 58.31 57.25 57.83 59.68 61.81 61.96 64.7 68.25 72.79 77.22 80.44 85.76 86.09 88.39 88.39 85.42 79.32 71.82 65.52 59.83 55.82 56.66 53.99 51.61 49.13 46.35
48.09 46.23 43.49 40.07 35.54 32.77 32.55 31.38 27.36 27.53 28.84 32.48 37.57 42.52 47.49 53.57 60.27 67.16 74.26 81.54 88.6 89.97 90.05 89.68 91.41 85.13 78.42 72.94 68.5 63.34 58.18 52.81 47.7 42.46 38.16 33.67 30.86 26.98 25.03 21.22 20.83 25.49 33.25 37.25 39.1 40.06 40.95 41.05 39.92 39.24 44.62 49.26 51.48 49.07 44.22 38.15 33.49 26.59 22.65 24.35 27.97 31.44 34.54 37.87 39.18 39.43 38.67 35.13 35.94 36.22 34.83 31.72 32.83 34.96 42.21 47.83 52.53 57.39 62.37 66.8 67.8 65.91 62.68 56.96 51.18 49.18 54.5 58.72 60.9 62.03 63.56 63.22 61.62 57.98 55.62 53.59 49.6 45.2 41.55 38.97 40.15 42.02 43.78 43.65 42.84 46.68 51.16 57.03 63.1 68.48 72.46 73.05 72.43 70.56 68.71 64.51 62.52 67.1 71.14 75.1 78.13 79.2 77.07 76.3 73.27 69.62 62.84 55.76 49.34 46.07 45.36 46.44 47.38 46.17 43.47 39.58 35.09 38.82 43.19 48.49 50.68 50.86 49.07 46.92 44.09 38.41 37.17 40.41 45.27 47.99 51.48 53.33 52.65 49.1 44.75 39.59 35.48 31.37 29.63 32.66 36.09 40.33 46.16 51.06 55.97 60.08 61.9 64.18 67.15 70.34 70.4 68.15 63.69 58.69 54.15 51.55 52.19 55.82 58.37 60.12 60.86 60.98 60.17 57.9 55.44 53.81 53.12 51.12 48.7 45.33 40.89 37.46 35.09 33.7 32.25 31.47 29.94 28.22 27.02 25.86 25.09 24.16 22.73 20.3 17.34 14.79 12.65 10.88 8.445 6.846 7.308 7.086 7.42 8.66 11.41 15.88 20.61 25.16 29.2 31.58 31.7 30.64 28.86 25.97 22.94 19.13 15.19 11.49 8.529 5.576 3.191 2.035 1.574 1.577 1.668 1.307 1.23 1.067 0.8518 0.9511 1.103 1.052 0.8316 0.851 1.13 1.031 1.056 1.25 1.263 1.499 3.305 4.629 5.86 6.649 7.326 7.757 7.354 7.098 6.736 6.772 6.787 6.885 7.171 7.448 8.272 8.92 9.379 10.47 11.93 13.8 15.91 18.4 21.23 24.5 27.73 30.19 31.82 32.48 33.32 34.09 32.2 30.97 31.15 28.51 25.83 23.12 20.07 20.99 24.94 27.37 29.08 31.96 32.32 33.24 33.36 31.57 28.17 27.28 26.43 26.02 26.13 25.51 25.32 25.41 25.18 25.68 24.95 23.21 22.87 24.05 26 28.04 30.19 30.15 29.17 27.94 28.77 29.7 30.53 32.22 32.29 31.75 31.18 28.91 25.53 27.56 29.65 31.72 32.74 33.08 33.59 32.61 31.68 26.78 27.77 27.8 27.86 28.49 28.83 29.04 29.33 29.85 30.65 31.51 32.62 33.66 34.53 35.31 35.7 33.81 34.34 34.82 34.29 34.68 35.32 36.28 36.83 37.21 38.05 37.69 38.74 41.22 41.09 42.01 41.77 40.57 40.67 41.96 43.45 44.77 45.56 44.85 45.85 45.63 46.51 47.04 47.01 47.51 49.11 49.92 51.43 52.87 55.83 59.3 63.03 64.9 64.3 64.94 65.19 65.34 66.38 68.84 72.5 77 81.28 85.29 87.53 88.89 88.47 86.23 85.47 81.76 75.26 71.58 65.72 61.66 60.31 56.57 52.67 49.55 46.61
55.45 52.8 48.09 43.91 40.46 38.4 38.2 36.43 34.29 31.85 29.42 30.46 33.92 40.08 45.63 51.46 56.42 63.01 70.31 77.49 84.12 89.66 90.59 90.05 89.8 86.94 80.11 73.62 68.95 63.81 58.81 53.92 49.15 45.23 41.35 37.82 34.45 30.98 27.25 24.14 24.76 28.49 34.76 38.16 41.72 43.39 45.38 46.17 45.92 45.63 44.61 49.27 50.93 49.33 43.94 38.21 32.69 26.83 23.75 24.89 29.16 32.95 36.83 40.55 43.25 43.69 41.65 39.64 40.75 40.75 39.21 36.21 32.22 34.83 40.88 46.92 52.63 58 63.72 67.71 70.61 68.25 66.26 60.72 55.32 54.61 58.11 61.68 65.03 65.05 64.62 62.66 60.55 55.86 51.51 48.31 46.35 41.44 40.75 41.66 43.95 45.52 47.1 48.61 46.42 47.14 51.22 57.36 64.04 70.28 75.26 77.42 77.04 75.94 73.92 70.56 69.85 72.36 75.83 78.9 79.1 76.61 73.61 73.03 72.18 68.33 62.4 54.9 48.15 41 39.39 39.85 41.84 40.42 38.14 34.43 34.68 38.76 43.56 47.86 49.47 48.45 44.66 41.81 40.3 36.65 34.16 37.74 41.3 44.28 48.89 51.55 51.2 49.42 45.5 39.87 36.38 32.34 28.17 29.72 33 38.09 43.47 48.75 52.66 55.23 57.18 59.88 63.68 66.19 68.26 68.56 66.27 62.87 60.67 58.86 58.41 60.65 62.57 63.53 63.56 63.72 62.16 61.05 59.03 57.27 56.73 53.82 51.01 47.84 44.28 41.84 39.69 38.14 36.49 35.2 33.95 32.28 31.25 29.87 27.96 26.67 24.4 21.78 18.85 15.29 13.1 10.91 8.361 6.042 6.007 6.948 6.919 7.984 10.21 14.36 18.97 23.39 26.67 29.86 31.34 30.53 29.58 26.52 22.89 18.95 14.57 10.7 7.336 4.051 1.852 1.925 1.524 1.463 1.363 1.125 1.155 0.9989 0.7815 1.081 1.088 0.9323 0.7546 0.7194 0.8124 0.8422 1.192 1.376 1.357 2.606 4.565 6.062 7.317 8.327 9.195 9.466 8.392 7.311 6.534 6.128 6.154 6.285 6.456 6.867 7.716 8.333 8.669 9.91 11.53 13.33 15.41 18.05 20.76 24.3 27.65 29.5 28.2 28.35 29.1 29.32 27.04 24.74 26.99 25.54 23.95 21.71 19.78 18.62 22.68 25.55 27.21 27.19 26.8 26.28 26.08 24.11 21.96 20.54 20.26 20.79 21.21 22.27 21.92 21.45 21.86 22.3 22.29 21.4 21.54 22.86 24.24 24.55 26.06 25.11 25.61 25.25 26.6 26.15 26.32 26.6 26.74 26.91 27.2 25.88 25.37 25.96 25.61 27.02 26.53 26.52 27.58 27.02 26.59 26.82 28.51 28.74 28.61 29.14 29.69 30.21 31.25 31.55 31.96 33.54 34.08 34.77 35.46 37.49 36.29 35.82 37.16 37.2 37.2 37.26 36.37 36.25 36.92 37.27 38.12 38.71 38.86 38.39 39.14 34.23 38.36 41.49 41.74 44.26 46.11 48.69 50.62 50.4 50.49 50.73 51.33 51.37 52.48 51.76 50.86 52.79 55.71 59.5 62.83 64.96 67.73 69.25 70.22 71.7 72.02 72.05 72.32 73.85 77.19 80.09 83.57 84.74 85.95 85.29 82.64 79.85 79.12 76.84 73.47 70.28 65.09 61.45 56.32 52.37 50.2 47.83 45.1
